ply
format ascii 1.0
comment Created by Open3D
element vertex 1269
property double x
property double y
property double z
property uchar red
property uchar green
property uchar blue
end_header
0.60356 0.339638 1.01531 168 162 146
0.565722 0.325317 0.931506 167 161 145
0.622586 0.483321 1.0224 164 156 139
0.519244 0.476759 0.806403 154 148 132
0.61594 0.409258 1.05834 155 148 132
0.252568 0.308735 0.636915 155 151 139
0.561782 0.313329 0.922902 174 171 154
0.55493 0.774325 1.13482 45 20 15
0.280791 0.595907 0.552005 224 214 204
0.618326 0.545993 1.00753 170 161 146
0.526656 0.173452 1.12315 85 82 67
0.35447 0.14098 0.741965 148 144 132
0.526656 0.173452 1.12315 85 82 67
0.471678 0.115393 1.13074 146 143 128
0.326204 0.0717533 0.736369 150 147 132
0.232156 -0.0195252 1.33008 87 83 71
0.197478 0.0293048 0.566418 158 155 138
0.265744 0.0369415 0.620698 128 126 112
0.280791 0.595907 0.552005 224 214 204
0.56982 0.283474 1.03486 151 148 131
0.605404 0.357567 1.04288 113 107 93
0.59025 0.317866 1.14579 111 106 87
0.269782 0.667725 0.557723 227 214 202
0.592989 0.55028 0.9416 176 167 153
0.347607 0.188125 0.689228 147 143 131
0.316067 0.204763 0.60754 72 68 56
0.426513 0.0721529 1.00695 155 152 135
0.551424 0.320462 0.89526 163 160 143
0.596745 0.51616 0.936947 175 166 150
0.291221 0.0243747 0.572752 152 149 132
0.551424 0.320462 0.89526 163 160 143
0.429845 0.480858 0.726445 174 171 154
0.309457 0.0729803 0.643893 134 132 119
0.535405 0.720474 1.29425 138 121 111
0.275474 0.0242485 0.888109 108 101 82
0.190843 -0.207756 1.37693 187 186 181
0.190843 -0.207756 1.37693 187 186 181
0.191825 1.24684 0.430649 200 202 191
0.235763 1.32092 0.429434 187 39 51
0.420837 0.900684 0.893464 197 42 55
0.566248 0.339445 0.926628 126 123 106
0.585537 0.293845 1.04434 123 117 101
0.503756 0.337495 0.807748 166 163 146
0.52381 0.272532 0.877405 115 112 95
0.554219 0.780834 1.10828 124 96 92
0.384003 1.51854 0.447722 151 50 49
0.591208 0.734721 0.956718 143 131 117
0.503914 0.708965 0.844233 177 168 153
0.566444 0.244905 1.02579 96 93 76
0.483432 1.56261 1.56722 44 4 3
0.559425 1.56032 1.34897 161 122 115
0.577001 0.743044 1.03756 155 141 128
0.503914 0.708965 0.844233 177 168 153
0.298028 0.0592646 0.691661 77 74 61
0.285596 0.0656918 0.67001 136 134 121
0.311052 0.139516 0.630792 108 104 92
0.569662 0.245099 1.02551 96 93 76
0.286851 0.121681 0.598805 137 134 121
0.233213 -0.0196359 1.29223 136 132 120
0.342072 0.168497 0.68335 151 149 136
0.325678 0.195955 0.572324 143 139 127
0.291153 0.0595317 0.607374 85 83 68
0.235098 -0.117058 1.26229 147 144 127
0.268859 0.0293367 0.899787 73 68 49
0.268774 0.0129522 0.839096 170 156 134
0.552483 0.796552 1.3175 156 49 53
0.455646 0.181411 0.847206 120 117 102
0.499885 0.471454 0.740337 175 172 155
0.451381 0.119739 0.913479 158 155 140
0.588687 0.426549 0.910038 149 143 127
0.531289 0.620489 0.837055 137 130 114
0.603028 0.573589 0.964815 179 170 155
0.582022 0.703963 0.9988 121 112 97
0.605515 0.678601 1.10007 160 144 131
0.590396 0.678025 1.00148 174 165 150
0.420866 0.967325 0.879856 144 12 23
0.603028 0.573589 0.964815 179 170 155
0.604246 0.574851 0.976221 146 137 122
0.43845 0.270319 0.750736 162 159 144
0.436694 0.260753 0.761079 157 154 139
0.539693 0.294308 0.919792 114 111 94
0.573964 0.273638 0.996716 127 124 109
0.488579 0.30041 0.810906 129 126 109
0.348089 0.228369 0.682244 65 61 50
0.504586 0.165701 0.936155 166 163 148
0.615181 0.49872 0.977289 139 132 116
0.603028 0.525924 0.942955 152 147 128
0.598463 0.483809 0.928254 170 164 148
0.500016 0.559404 0.773076 168 162 146
0.578692 0.339855 0.936389 172 169 152
0.491078 0.34479 0.790323 124 121 104
0.226545 -0.0551169 1.06722 115 108 90
0.235145 -0.0396089 0.8897 130 127 108
0.587738 0.71312 1.06731 113 97 84
0.575032 0.736624 1.13018 93 74 62
0.560124 1.55155 1.37406 110 81 75
0.560599 1.53301 1.33565 44 6 10
0.582522 0.351465 0.946072 133 130 113
0.490842 0.349797 0.778368 161 158 141
0.448337 0.0964959 1.04701 156 153 136
0.523753 0.283333 0.883358 108 105 88
0.553609 0.312206 0.912009 139 136 119
0.421464 0.259076 0.75508 97 94 79
0.294502 0.0132063 0.605773 152 149 130
0.228894 -0.107216 1.25057 116 113 98
0.226545 -0.0551169 1.06722 115 108 90
0.269642 0.00468037 0.868906 163 151 129
0.31176 0.154084 0.622546 141 137 125
0.402095 0.0690081 0.932045 156 153 136
0.324412 0.109126 0.657642 139 137 125
0.307785 0.119267 0.62902 138 136 123
0.220095 -0.0518419 1.3048 128 125 110
0.623231 0.475336 1.03392 125 118 102
0.599903 0.349957 1.00201 95 89 75
0.582522 0.351465 0.946072 133 130 113
0.579178 0.329556 0.953056 169 166 149
0.561557 0.630414 0.888353 131 124 108
0.218026 -0.104139 1.32517 100 97 82
0.567205 0.765886 1.07328 81 52 46
0.619184 0.40983 1.03294 168 161 145
0.564019 0.352274 0.885643 172 166 150
0.560167 0.331511 0.908115 170 165 149
0.548687 0.328618 0.887042 171 168 151
0.610236 0.609323 0.999905 135 126 111
0.631759 1.49599 1.38274 51 8 9
0.608721 0.647937 1.07682 178 169 154
0.619144 0.61132 1.08902 167 158 143
0.542376 0.738597 1.21993 97 72 68
0.279549 0.0540574 0.671327 56 54 41
0.554651 0.349966 0.888799 172 166 150
0.301609 0.0265334 0.650104 146 143 128
0.28513 0.0179276 0.730703 123 119 105
0.337752 0.170081 0.629746 134 132 119
0.49493 0.864879 1.00536 184 34 44
0.510442 0.697629 0.861641 125 115 103
0.528559 0.455635 0.805877 168 165 148
0.578425 0.438657 0.884843 126 123 106
0.311018 0.239947 0.637883 47 43 32
0.213888 0.813752 0.666673 197 167 157
0.329034 0.210825 0.628464 121 118 106
0.518686 0.805663 1.13203 28 10 6
0.612386 0.658034 1.11273 162 148 135
0.204024 -0.0151857 0.542598 197 197 189
0.294937 0.066742 0.575014 144 142 127
0.212937 0.864418 0.815072 168 38 48
0.345555 0.327816 0.642381 168 165 150
0.619717 0.381115 1.00817 175 168 152
0.45733 1.07071 0.794736 134 21 29
0.590477 0.659022 0.997242 170 161 146
0.420837 0.900684 0.893464 197 42 55
0.514809 0.959189 0.992085 164 16 28
0.148488 0.043469 1.0235 152 149 134
0.236839 -0.0348395 1.14989 132 129 114
0.273333 0.855297 0.722732 212 209 204
1.02649 1.72435 1.29158 129 125 113
1.02649 1.72435 1.29158 129 125 113
0.416764 0.116835 0.860103 154 151 136
0.517785 0.780349 1.58974 200 201 195
0.512285 0.392479 0.794521 164 158 142
0.481521 0.668494 0.776317 136 127 110
0.509724 0.64542 0.801243 176 167 152
0.516938 0.394378 0.800936 134 128 112
0.329057 0.408431 0.613151 148 145 128
0.518046 0.520493 0.792543 169 162 146
-0.195776 2.06856 0.769366 95 92 83
0.537928 0.39396 0.830204 175 169 153
0.347748 0.255946 0.652405 150 147 132
0.46831 0.170172 0.865386 100 97 82
0.414175 0.179878 0.821723 174 171 154
0.462521 0.243582 0.797053 158 155 138
0.451536 0.275823 0.76865 166 163 146
0.444103 0.270677 0.765275 117 112 96
0.239807 -0.0814874 1.30768 80 76 65
0.440121 0.113245 0.904152 151 148 131
0.507022 0.337047 0.815038 121 118 101
0.484526 0.314023 0.804931 112 109 92
0.516561 0.394354 0.801175 134 128 112
0.331957 0.123517 0.734779 49 45 34
0.268249 0.0538367 0.818786 43 36 26
0.227068 -0.0506396 0.893929 195 196 190
0.234051 -0.0400098 0.890169 125 119 103
0.561185 1.55089 1.37245 142 107 105
0.358551 0.129117 0.756533 125 121 109
0.505193 0.382836 0.78283 124 121 104
0.511017 0.664586 0.826771 123 114 99
0.506762 0.579054 0.783405 184 175 160
0.760405 1.31507 1.50939 116 28 34
0.220772 -0.104902 1.32438 73 69 56
0.518353 0.40593 0.794274 161 155 139
0.526274 0.504057 0.798446 110 104 88
0.613571 0.442868 0.984451 157 150 134
0.302531 0.0700806 0.702114 143 139 127
0.489337 0.188724 0.895701 145 142 127
0.615831 0.431029 1.00851 151 145 131
0.281437 0.0128775 0.633415 82 79 64
0.315513 0.0362487 0.715995 147 143 131
0.383139 0.0715875 0.881152 152 149 130
0.245925 -0.0326316 0.898699 122 111 91
0.243431 -0.0385594 0.806576 200 201 195
0.263986 0.132452 0.65689 77 75 63
0.263986 0.132452 0.65689 77 75 63
0.572816 1.54267 1.56148 199 192 182
0.58954 0.684936 1.01268 143 134 119
0.620087 0.45237 1.02928 136 130 114
0.519696 0.674148 0.841372 130 122 109
0.482694 0.706342 0.812926 133 123 111
0.519537 0.271311 0.878544 128 125 108
0.337931 0.39941 0.605019 159 156 141
0.553131 0.284395 0.932903 174 171 152
0.450606 0.259284 0.781042 82 79 62
0.440694 0.243104 0.760422 169 166 151
0.493891 0.266189 0.834469 133 130 113
0.574574 0.389617 0.896516 178 175 160
0.348313 0.410826 0.633217 170 166 154
-0.603801 1.94368 0.552935 170 166 154
0.250145 1.81589 1.18681 153 36 40
0.558324 1.60052 1.25536 109 27 27
0.556684 0.337777 0.895417 138 135 118
-0.573722 2.00197 0.570124 108 104 92
0.509622 0.665269 0.8285 137 130 114
0.329704 0.105518 0.73748 126 124 111
0.185275 -0.0166606 0.583916 163 162 144
0.355168 0.128473 0.759479 146 142 130
0.347941 0.196586 0.712717 140 136 125
0.420152 0.203939 0.792216 137 134 117
0.508339 0.164997 0.957206 125 122 105
0.400094 0.173631 0.809625 129 128 110
0.517502 0.272679 0.86786 174 171 154
0.475002 0.164942 0.877517 166 163 146
0.401882 0.173854 0.824993 121 121 103
0.196546 -0.168129 1.39787 168 166 153
0.542563 0.442748 0.835951 184 181 164
0.543797 0.600588 0.848466 195 188 172
0.418703 0.196119 0.796524 174 173 155
0.37999 0.137767 0.81477 150 146 134
0.507472 0.173313 0.958056 164 161 144
0.469619 0.408412 0.741185 182 179 164
0.49063 0.248556 0.840988 129 126 109
0.354342 0.198148 0.718384 73 69 58
0.446101 0.150287 0.847479 164 162 147
0.450478 0.140131 0.900693 128 126 110
0.341417 0.157258 0.702907 158 156 144
0.346562 0.142533 0.753335 149 146 131
0.315796 0.198623 0.594295 125 121 109
0.37999 0.137767 0.81477 150 146 134
0.370995 0.12869 0.824579 119 115 103
0.423887 0.167083 0.830789 133 131 116
0.46429 0.218687 0.819207 172 169 152
0.345968 0.275788 0.686036 58 54 42
0.418703 0.196119 0.796524 174 173 155
-0.605334 1.72871 1.32457 140 141 125
-0.600699 1.80378 1.30733 109 108 95
-0.759552 1.7505 1.29836 44 41 32
-0.334305 1.72696 0.764243 145 142 125
0.124753 1.62589 0.34984 107 104 87
0.179702 1.63709 0.342974 84 81 66
-0.159372 1.66281 0.788273 97 77 66
-0.56421 1.89741 0.568297 119 117 104
-0.520422 1.8859 0.589507 61 59 46
-0.669582 1.80579 0.611641 119 117 104
-0.403209 1.78137 0.702211 134 132 117
-0.375945 1.78738 0.701558 103 100 85
-0.347669 1.76349 0.718935 137 134 119
-0.467098 1.7932 0.688512 137 133 121
-0.348546 1.75495 0.71967 79 76 61
-0.334305 1.72696 0.764243 145 142 125
-0.558336 1.82129 0.644713 127 121 109
-0.388196 1.76962 0.703695 103 101 86
0.267111 1.6011 0.35058 129 125 113
-0.0329543 0.112536 0.848621 133 130 113
-0.000544538 0.121479 0.825551 127 124 107
0.0483777 0.151313 0.725589 126 123 106
-0.792298 1.86871 0.633039 137 138 122
-0.278992 1.30384 0.97405 245 206 190
0.197063 1.50425 0.349726 155 152 135
0.0857083 0.255324 0.649178 113 110 93
-0.268499 1.14341 1.0652 145 70 67
-0.208352 1.06033 1.02956 255 214 205
-0.188884 1.06552 0.997292 166 75 74
-0.238383 1.27621 0.935065 241 204 183
-0.332126 1.31137 1.06346 252 212 195
-0.321339 1.34619 1.03006 162 57 61
-0.333969 1.3524 1.05369 246 201 185
-0.294827 1.17651 1.08458 159 74 72
-0.331973 1.35952 1.04849 150 76 72
-0.305973 1.36901 0.993786 159 101 93
-0.250493 1.3771 0.925108 171 44 51
-0.236169 1.18814 0.966566 158 52 57
-0.278007 1.19516 1.04132 165 95 87
-0.235622 1.24222 0.937807 253 222 207
-0.258414 1.20525 0.993805 241 210 187
-0.0679033 0.308443 0.804495 104 147 141
0.191066 0.78032 0.680977 159 129 118
-0.0499329 0.813285 0.936222 153 145 133
0.0160943 0.403162 0.643834 116 113 96
0.235938 0.407773 0.587156 75 71 59
0.225013 0.406755 0.58751 136 132 120
-0.0818725 0.323958 0.746343 89 160 154
0.014906 0.383872 0.649468 161 158 141
-0.0409202 0.364617 0.765702 215 222 209
0.153758 0.481966 0.618448 118 115 98
0.241492 0.518659 0.622386 96 92 80
0.194758 0.510064 0.617108 147 140 124
0.142212 0.497519 0.626928 143 131 117
-0.187261 0.618987 0.861139 173 156 138
-0.070273 0.453561 0.723267 184 177 159
-0.531114 1.8844 0.584383 112 110 97
-0.605788 1.8255 0.631431 116 112 100
-0.548736 1.91575 0.55404 124 122 109
-0.175588 1.09743 0.958508 245 203 186
-0.0194233 0.868778 0.973546 65 47 40
-0.0459188 0.328355 0.771965 231 227 218
-0.0431279 1.5295 0.56346 117 24 24
-0.355714 1.44313 1.07389 235 222 199
-0.364494 1.4139 1.08022 152 40 47
-0.243229 1.36754 0.918022 248 203 188
-0.311408 1.35513 1.00669 168 63 58
-0.280171 1.27575 0.995377 247 219 200
-0.294507 1.25748 1.02949 231 216 197
-0.406096 1.44331 1.23738 255 217 203
-0.15142 0.635663 0.838424 16 7 3
-0.13743 0.630269 0.829028 19 10 4
-0.300052 1.25424 1.04891 171 83 83
-0.238325 1.17829 0.981016 169 70 73
-0.26779 1.1615 1.0451 191 73 71
-0.0629051 0.828873 0.989295 79 71 60
-0.688234 1.67292 1.34278 84 78 66
-0.737092 1.56823 1.35671 151 142 127
-0.585816 1.72455 1.31362 132 128 116
-0.585816 1.72455 1.31362 132 128 116
-0.272786 1.67693 0.803574 166 159 143
0.144367 1.63505 0.339436 147 144 128
-0.347883 1.76956 0.711353 85 82 67
0.123426 -0.1558 1.25112 177 169 147
-0.581864 1.73976 1.31242 77 75 62
-0.11051 0.310912 0.86891 7 30 24
-0.762324 1.72286 1.28913 54 51 42
-0.624109 1.78654 1.30957 113 111 99
-0.478188 1.78894 1.29221 149 147 132
-0.754061 1.58975 1.32956 150 144 132
0.0875998 1.60107 0.369914 155 152 135
-0.249633 1.70479 1.17508 190 178 154
0.245873 1.60804 0.327131 124 120 108
-0.887989 1.61242 1.31767 91 88 71
0.144367 1.63505 0.339436 147 144 128
-0.705565 1.9709 0.554163 143 144 130
-0.594133 1.92607 0.562373 82 83 67
-0.297941 1.81734 0.672408 116 113 96
-0.38129 1.77755 0.699316 137 135 120
-0.535943 1.81091 0.683692 111 109 96
0.0835043 0.241776 0.654091 159 156 139
0.154442 0.269012 0.623826 147 144 129
0.0119808 0.447986 0.645836 157 150 134
0.0256507 0.45771 0.659262 121 112 97
-0.142505 0.466326 0.799364 157 149 130
0.207142 0.524556 0.620255 151 145 129
-0.138289 0.63023 0.828195 19 10 4
-0.174 0.365312 0.847948 110 112 97
-0.177389 0.39331 0.83995 163 165 151
-0.356699 0.392397 0.895941 208 196 185
-0.0652295 0.167144 0.843579 102 99 82
0.126124 -0.190477 1.31414 200 194 182
0.0943548 -0.088733 1.32655 225 219 203
-0.0982771 0.171852 0.869236 174 171 154
-0.00762212 0.215279 0.757305 177 174 157
-0.358919 1.32813 1.13358 185 47 60
-0.357771 1.33552 1.08735 254 232 217
-0.281496 1.38103 0.960308 149 61 59
-0.406096 1.44331 1.23738 255 217 203
-0.403532 1.44625 1.20001 237 217 193
-0.328769 1.23948 1.11474 242 219 201
-0.354166 1.25662 1.17298 189 60 72
-0.300727 1.2543 1.04725 171 83 83
-0.294507 1.25748 1.02949 231 216 197
-0.342313 1.27879 1.1122 239 217 188
-0.275118 1.28144 0.986366 164 74 76
-0.244568 1.29777 0.941823 161 51 51
-0.271672 1.30061 0.967766 237 209 195
0.0258326 1.52685 0.449119 171 168 151
0.0465089 1.5406 0.434356 139 136 119
-0.385048 1.4511 1.11936 254 235 216
-0.358224 1.47546 1.05674 168 58 62
0.151349 0.90902 0.83963 70 0 1
0.0928846 0.908969 0.867356 153 40 48
-0.201532 1.02258 1.04632 185 49 58
-0.15142 0.635663 0.838424 16 7 3
-0.0923599 0.776625 1.01166 157 133 121
-0.0604018 0.829407 0.993594 79 71 60
-0.408311 1.22067 1.84813 147 138 121
-0.332496 1.17704 1.20099 241 204 193
-0.321574 1.17323 1.1436 171 80 75
-0.255163 1.20973 0.984157 189 52 60
-0.195074 1.03471 1.02881 172 52 53
-0.226067 1.04077 1.08134 176 75 79
-0.195815 1.046 1.0267 228 196 174
-0.23279 1.06959 1.09201 248 219 205
-0.181644 1.06941 0.986884 241 222 200
-0.264995 1.07201 1.14485 233 220 203
-0.275625 1.14814 1.07621 243 213 196
-0.290449 1.10227 1.15781 179 73 77
-0.253468 1.12782 1.05289 227 196 175
-0.694716 1.91163 0.630962 99 97 82
-0.675117 1.92426 0.597363 140 141 127
-0.682771 1.83174 0.609037 99 97 82
-0.677638 1.83474 0.595805 136 134 119
-0.617846 1.863 0.577663 78 76 63
-0.524344 2.29297 0.770312 108 108 98
-0.806749 1.95086 0.607084 121 122 106
-0.436888 1.78135 0.705481 134 130 118
-0.842242 1.73725 1.2982 73 71 58
-0.610173 1.8124 0.627683 69 65 53
-0.0769265 0.335746 0.816749 9 20 18
-0.339688 1.90346 0.632958 136 134 119
-0.644966 1.85719 0.588443 74 71 56
-0.0777596 0.224513 0.800907 170 167 150
0.100418 0.254003 0.633048 165 162 145
0.124507 0.443102 0.610464 93 90 75
-0.327084 1.42356 1.01597 253 220 209
-0.0235487 0.140438 0.801594 164 161 144
-0.318145 1.42944 0.996989 243 219 205
-0.388084 1.71168 1.28026 73 67 53
-0.316699 1.16075 1.14267 244 221 202
-0.389842 1.34631 1.23009 250 204 188
-0.397441 1.39051 1.21585 197 48 50
-0.221156 1.25345 0.92285 248 203 190
-0.183648 0.763136 0.977175 177 153 143
0.107811 0.808783 0.795262 167 131 121
0.134493 0.824531 0.811894 83 66 57
-0.0113672 0.386078 0.655343 162 159 142
0.227615 0.42165 0.598541 50 46 34
-0.465703 0.407102 1.03223 217 215 208
0.124507 0.443102 0.610464 93 90 75
-0.195406 0.44289 0.834094 131 126 107
0.114498 0.471385 0.613013 145 139 125
-0.145671 0.400673 0.847781 100 170 167
-0.290136 1.16482 1.0856 246 234 211
-0.269657 1.17095 1.03666 215 206 179
-0.307513 1.18761 1.10664 233 221 200
-0.281883 1.20761 1.04872 230 208 187
-0.297663 1.21373 1.06622 230 211 192
-0.312571 1.2073 1.09979 228 218 193
-0.317195 1.16048 1.14315 244 221 202
-0.274873 1.13795 1.07896 230 206 193
-0.203916 1.14265 0.962405 190 67 69
-0.248686 1.15288 1.01721 220 224 194
-0.32113 1.16033 1.16589 196 61 65
-0.0778082 0.336004 0.816109 9 20 18
-0.773939 1.5962 1.31892 146 140 128
-0.0558744 0.175832 0.828827 160 157 140
-0.00496267 0.184143 0.776626 114 111 94
-0.0763325 0.210268 0.81678 119 116 99
-0.270424 1.49876 0.937871 160 37 42
0.0857211 1.5767 0.370168 165 162 145
-0.796066 1.52491 1.37302 123 114 99
-0.397451 1.39129 1.21573 197 48 50
-0.263891 1.37105 0.946201 166 41 49
-0.261128 1.2997 0.958373 172 61 60
-0.306366 1.27209 1.0456 179 54 62
0.0778675 1.42304 0.481556 205 60 63
-0.385475 1.43418 1.1388 245 235 221
-0.356928 1.4159 1.06955 246 221 199
-0.359809 1.40576 1.07948 182 36 44
0.25332 1.61414 0.327518 87 83 71
-0.612291 1.70807 1.32931 131 132 118
-0.693613 1.67874 1.31665 116 110 98
-0.691676 1.62807 1.33974 124 116 103
-0.742697 1.60477 1.34157 79 73 61
-0.827162 1.56881 1.33862 143 140 121
0.127403 1.65941 0.32777 134 130 114
-0.6919 1.65631 1.32939 118 112 98
-0.388084 1.71168 1.28026 73 67 53
-0.391901 1.72225 1.26836 137 131 117
0.0833048 1.55332 0.384679 167 164 147
-0.245785 1.19452 0.978318 232 222 194
-0.344153 1.27305 1.12776 192 60 73
-0.80491 1.55781 1.34209 100 92 78
0.22802 1.62777 0.332301 52 48 36
-0.2943 1.37214 0.977951 190 40 47
-0.308388 1.35089 1.00462 190 49 54
-0.391606 1.35902 1.20995 199 54 62
-0.332339 1.33975 1.05352 181 44 48
-0.541893 1.7269 1.30537 149 145 133
-0.212009 1.24696 0.915966 186 40 51
-0.0287434 1.51398 0.551315 193 148 145
-0.293921 1.47675 0.965663 239 227 206
-0.333595 1.47538 1.02191 224 218 196
-0.286888 1.44399 0.954039 239 234 214
-0.379508 1.43764 1.12232 193 52 67
-0.341766 1.42074 1.04476 223 216 195
-0.449445 1.83734 0.648472 71 72 58
-0.579404 1.90623 0.566497 120 118 105
-0.638065 2.04104 0.548434 124 124 112
-0.877616 1.59034 1.34337 89 86 71
-0.763355 1.97423 0.580976 136 138 124
0.0823553 1.44904 0.439839 154 138 125
-0.659383 1.93037 0.598234 93 94 79
-0.334299 1.47557 1.0215 224 218 196
-0.313555 1.48132 0.989211 226 220 198
0.000590793 1.58241 0.509562 191 180 168
-0.241708 1.08986 1.07959 196 56 68
-0.277436 1.07912 1.16318 208 212 185
-0.248379 1.04075 1.15167 243 211 192
-0.207752 1.03109 1.05709 199 47 60
-0.158977 0.722557 0.934911 163 134 120
-0.170579 0.655719 0.927814 9 1 0
-0.334987 1.2228 1.13891 242 233 218
-0.0695522 0.302927 0.781514 223 227 214
-0.0966819 0.277206 0.852074 144 153 134
-0.209494 1.03359 1.05667 199 47 60
-0.103724 0.220776 0.828507 169 166 149
-0.120636 0.425583 0.809762 121 199 204
0.129822 0.483121 0.652896 143 134 117
-0.120362 0.425134 0.811137 121 199 204
-0.136383 0.416818 0.825995 134 201 200
-0.389024 1.42877 1.1609 209 49 62
-0.387613 1.42529 1.15899 209 49 62
-0.293886 1.37154 0.978086 190 40 47
-0.286888 1.44399 0.954039 239 234 214
-0.280425 1.46897 0.951185 180 42 42
-0.319414 1.45036 1.00085 197 52 59
-0.319414 1.45036 1.00085 197 52 59
0.0549912 0.455626 0.645402 116 109 93
0.101243 0.834569 0.821716 145 121 119
-0.175242 1.07514 0.972041 231 208 191
-0.780286 1.58389 1.34121 86 83 68
-0.318163 1.24912 1.08341 239 212 193
-0.265246 1.39939 0.936624 255 217 199
-0.226169 1.22952 0.940567 162 81 85
-0.339264 1.19686 1.2094 245 213 202
-0.341046 1.21024 1.19651 235 204 186
-0.347804 1.22905 1.21532 238 201 186
-0.278818 1.20865 1.03048 184 64 71
-0.238152 1.2106 0.959733 248 197 187
-0.263976 1.21604 0.994498 250 209 192
-0.336658 1.2828 1.09271 189 47 62
-0.28031 1.27512 0.994554 250 217 201
-0.22712 1.28337 0.923011 248 197 181
-0.273728 1.30913 0.964001 177 47 56
-0.315693 1.25463 1.07447 252 217 201
-0.320329 1.26188 1.08123 149 74 71
-0.2433 1.36728 0.917692 251 208 184
-0.233843 1.26077 0.932416 247 206 192
-0.297152 1.3501 0.985761 253 199 187
-0.176355 1.11084 0.948644 169 44 50
-0.219708 1.12959 1.00023 244 228 208
-0.305241 1.14762 1.1346 162 70 67
-0.226276 1.14585 0.996153 236 203 188
-0.258644 1.16006 1.02976 243 217 195
-0.301771 1.17684 1.10162 174 60 67
-0.261529 1.08649 1.13269 236 212 197
-0.18619 1.07992 0.98424 170 78 81
-0.225082 1.08552 1.04866 175 56 61
-0.224144 1.10896 1.02961 238 232 210
-0.266825 1.18238 1.02912 181 76 83
-0.267081 1.1614 1.0452 170 77 72
-0.23821 1.17809 0.980973 171 62 65
-0.226333 1.14573 0.995468 236 203 188
-0.225082 1.08552 1.04866 175 56 61
-0.297152 1.3501 0.985761 253 199 187
-0.235966 1.18864 0.967242 174 63 68
-0.310643 1.24333 1.07246 190 49 65
-0.255163 1.20973 0.984157 179 49 56
-0.255163 1.20973 0.984157 179 49 56
-0.267276 1.18204 1.02823 181 76 83
-0.327406 1.34973 1.04106 249 216 197
-0.288618 1.08518 1.17564 176 57 59
-0.355388 1.45191 1.06133 161 72 71
-0.355388 1.45191 1.06133 161 72 71
-0.355388 1.45191 1.06133 161 72 71
-0.397271 1.418 1.197 170 65 70
-0.26709 1.50382 0.951562 163 40 43
-0.247678 1.20753 0.973855 176 55 62
-0.245455 1.11975 1.04557 176 57 66
-0.209103 1.01223 1.07952 237 198 181
-0.316366 1.27296 1.06381 253 215 202
-0.304002 1.43352 0.981998 233 221 201
-0.317692 1.42919 0.997555 238 217 198
-0.284609 1.39083 0.957364 227 211 186
-0.335714 1.37232 1.0427 245 208 190
-0.327205 1.4234 1.01594 242 220 204
-0.348701 1.47226 1.04455 248 224 203
-0.270801 1.19434 1.0283 224 222 189
-0.193167 1.1591 0.946544 179 50 61
-0.29873 1.16517 1.10536 229 221 193
-0.18658 1.14728 0.944405 234 210 188
-0.26189 1.1472 1.04988 237 205 192
-0.197512 1.1189 0.977447 186 72 76
-0.245455 1.11975 1.04557 176 57 66
-0.238621 1.11013 1.04464 225 212 193
-0.296269 1.09657 1.18123 221 200 179
-0.268969 1.08498 1.14551 169 67 74
-0.218835 1.02096 1.08714 187 57 66
-0.233128 1.09156 1.05939 220 209 188
0.372369 0.104419 0.820231 152 148 136
-0.226615 1.0982 1.03899 197 65 77
0.301794 0.147071 0.595287 25 23 11
-0.186649 1.11936 0.959849 217 208 186
0.310474 0.153758 0.595716 137 135 123
-0.232148 1.09243 1.05999 220 209 188
0.59628 1.60398 1.27485 149 124 114
-0.233128 1.09156 1.05939 220 209 188
0.563263 0.511439 0.861007 126 120 106
-0.226532 1.09815 1.03903 197 65 77
0.336893 1.49489 0.357635 186 178 165
-0.229404 1.20275 0.953732 205 40 56
0.474356 0.839281 1.00684 44 20 17
-0.224143 1.21366 0.938845 238 223 204
0.505398 0.771205 0.880257 185 172 161
-0.328025 1.30101 1.06202 219 194 176
0.439789 0.798681 0.838841 111 93 86
-0.313833 1.48189 0.989061 218 213 183
0.515707 0.796322 0.913941 146 127 119
-0.264278 1.09625 1.13175 228 222 204
0.553079 1.59193 1.24684 231 174 163
-0.319932 1.45371 1.00208 198 48 56
0.564967 0.33551 0.914553 181 178 161
-0.279221 1.4714 0.95181 181 44 48
0.506661 0.383677 0.782368 130 127 110
-0.276059 1.30098 0.976299 201 168 150
0.485364 0.409554 0.724675 182 179 164
-0.300282 1.39231 0.975421 190 45 54
0.600216 0.350172 0.983499 187 181 165
-0.323648 1.43211 1.0142 235 221 205
0.49063 0.248556 0.840988 129 126 109
-0.310643 1.24333 1.07246 190 49 65
-0.753291 1.71406 1.29635 49 46 33
-0.186178 0.465884 0.821531 157 150 132
0.473163 0.672712 0.780012 141 133 120
-0.287366 1.23112 1.03592 227 210 195
-0.209338 1.01207 1.07938 237 198 181
-0.303037 1.26205 1.03954 253 219 201
-0.181919 0.465552 0.825067 157 150 132
0.527017 0.270051 0.884665 174 171 154
-0.175842 1.07381 0.972261 231 208 191
-0.23839 1.24591 0.934363 253 222 207
-0.285478 1.18517 1.06121 223 201 187
0.454953 0.297378 0.749073 165 162 147
-0.368263 1.41081 1.11128 205 193 175
-0.332126 1.31137 1.06346 252 212 195
-0.217639 -0.0106943 0.567935 198 194 191
0.310474 0.153758 0.595716 137 135 123
0.138258 0.449902 0.589508 145 142 127
-0.385513 1.31385 1.23481 255 193 181
-0.212061 1.11084 1.01199 237 215 204
0.440773 0.302258 0.733824 173 170 155
0.199113 0.468616 0.587043 150 146 134
-0.330487 1.28746 1.07211 169 60 62
-0.213768 1.1109 1.01028 237 215 204
0.554024 0.264936 0.951989 136 133 116
-0.192254 0.673588 0.903569 178 161 148
-0.238383 1.27621 0.935065 241 204 183
-0.310847 1.22473 1.08412 206 52 62
0.473101 0.324469 0.768742 136 133 118
-0.589673 1.89612 0.57844 73 71 58
-0.236169 1.18814 0.966566 158 52 57
-0.273256 1.21336 1.0179 199 56 57
0.429339 0.344183 0.717386 119 116 101
-0.312964 1.18699 1.10463 252 221 207
-0.226005 1.06235 1.06023 219 204 185
0.320794 0.15382 0.651664 67 67 55
-0.273256 1.21336 1.0179 199 56 57
0.478005 0.249913 0.813089 180 177 160
-0.31075 1.2247 1.08414 206 52 62
0.510721 0.20798 0.914051 112 109 94
-0.285069 1.14437 1.09835 198 55 59
0.494138 0.221122 0.870681 136 133 118
-0.2513 1.16312 1.02001 229 212 196
0.495689 0.212197 0.874941 182 179 164
-0.193085 1.07789 1.00349 217 209 191
0.305505 0.0738268 0.786138 111 109 94
-0.24754 1.08487 1.10388 215 214 193
0.464462 0.193535 0.84626 159 156 141
-0.192469 1.05527 1.00931 220 200 182
-0.230475 1.03419 1.10803 215 195 178
-0.230683 1.20158 0.952064 205 40 56
-0.222753 1.21365 0.93967 238 223 204
-0.362483 1.46249 1.07129 233 222 205
-0.313739 1.48285 0.989111 218 213 183
-0.308225 1.3818 0.991192 223 210 191
-0.359153 1.43271 1.08242 188 52 61
-0.306815 1.40914 0.97768 225 205 182
-0.261629 1.38104 0.935036 214 199 179
-0.318076 1.41508 0.989667 188 42 55
-0.328025 1.30101 1.06202 219 194 176
-0.290934 1.29938 0.997892 186 55 60
-0.229496 1.26998 0.929409 194 47 57
-0.388452 1.42753 1.16 194 44 63
-0.192507 1.02317 1.03525 202 175 156
-0.258725 1.25215 0.974776 233 226 210
-0.206331 1.18757 0.941463 177 50 53
-0.249147 1.20678 0.971542 176 55 62
-0.218355 1.22883 0.927886 238 204 185
-0.260914 1.19404 1.01247 240 213 194
-0.330286 1.27246 1.08625 228 200 186
-0.315789 1.27273 1.06425 253 215 202
-0.306444 1.27295 1.04618 182 51 65
-0.307448 1.28348 1.03672 229 219 195
-0.347608 1.33347 1.07596 182 44 52
-0.345063 1.34712 1.09085 226 213 195
-0.263876 1.23059 0.989388 168 61 70
-0.27033 1.22715 0.999256 246 229 203
-0.351517 1.42829 1.05447 161 57 58
-0.0634829 0.823676 0.939743 172 162 150
-0.252506 1.40599 0.92113 255 208 196
-0.371262 1.45712 1.08502 160 74 75
-0.260105 1.46184 0.925454 156 38 39
-0.21471 1.04451 1.05822 245 200 185
-0.205245 1.07315 1.02127 253 200 193
-0.232659 1.07916 1.06838 164 72 76
-0.217474 1.09414 1.02711 254 215 204
-0.218442 1.13889 0.991446 155 79 80
-0.207452 1.15288 0.959465 244 207 195
-0.0612415 0.805787 0.949091 172 160 148
-0.28239 1.16385 1.07425 154 76 80
-0.316008 1.30252 1.0385 240 195 181
-0.336689 1.32172 1.0634 246 187 176
-0.32425 1.3386 1.03798 250 196 189
-0.355229 1.35516 1.09554 167 100 96
-0.270457 1.35877 0.949967 249 195 179
-0.390491 1.44569 1.13048 166 68 65
-0.258981 1.20513 0.993559 252 207 193
-0.0625704 0.306436 0.811974 101 154 157
-0.257723 1.18408 1.01511 152 74 72
-0.25905 1.20511 0.993516 252 207 193
-0.294052 1.17659 1.08469 191 78 84
-0.285707 1.17195 1.07327 255 209 201
-0.275472 1.23397 1.00384 246 211 192
-0.299673 1.10685 1.17359 175 79 83
-0.240274 1.12822 1.0332 176 52 62
-0.287121 1.13221 1.11462 255 210 202
-0.296152 1.11169 1.16539 246 208 195
-0.217474 1.09414 1.02711 254 215 204
-0.289491 1.09471 1.16604 255 226 210
-0.166151 1.07337 0.961858 172 42 48
-0.232141 1.07927 1.06894 164 72 76
-0.28239 1.16385 1.07425 154 76 80
-0.198742 1.15192 0.953593 156 65 62
-0.207214 1.15302 0.959487 244 207 195
-0.32113 1.16033 1.16589 187 69 69
-0.30231 1.15306 1.12116 252 219 203
-0.219005 1.1387 0.9911 155 79 80
-0.268742 1.14311 1.06508 145 80 75
-0.369962 1.39639 1.10555 168 50 54
-0.303067 1.3716 0.986649 253 210 197
-0.307324 1.36862 0.993188 169 115 107
-0.382748 1.39202 1.14685 178 40 52
-0.270457 1.35877 0.949967 249 195 179
-0.308496 1.36071 0.998405 251 209 195
-0.332461 1.35933 1.04827 160 84 79
-0.356978 1.36338 1.08622 252 221 204
-0.325106 1.30303 1.05338 249 202 192
-0.309189 1.29472 1.03282 160 78 76
-0.255829 1.2832 0.96184 236 221 200
-0.316008 1.30252 1.0385 240 195 181
-0.286761 1.25323 1.01858 254 216 204
-0.334501 1.35234 1.05345 253 202 197
-0.355229 1.35516 1.09554 167 100 96
-0.32425 1.3386 1.03798 250 196 189
-0.205557 1.07316 1.02136 253 200 193
-0.336689 1.32172 1.0634 246 187 176
-0.253373 1.28945 0.933744 236 208 189
-0.30098 1.30025 1.01142 252 201 188
-0.0612698 0.806174 0.948924 172 160 148
-0.228501 1.04785 1.08771 247 209 196
-0.248347 1.05098 1.13714 174 103 96
-0.21471 1.04451 1.05822 245 200 185
-0.0756878 0.87493 1.07223 181 59 67
-0.360387 1.26971 1.16086 170 56 57
-0.168765 1.08848 0.951316 165 49 49
-0.229427 1.17952 0.975134 250 203 188
0.0320194 1.50071 0.493755 160 156 137
-0.197801 1.10224 0.988055 210 179 168
-0.254152 1.26211 0.955879 232 220 205
-0.105505 0.378804 0.809921 4 4 4
-0.33198 1.22573 1.16623 221 193 181
-0.281113 1.47359 0.962873 177 48 54
-0.28145 1.47419 0.96255 177 48 54
-0.333386 1.50006 1.00422 187 42 49
-0.354031 1.30218 1.11756 202 46 58
0.107185 1.41141 0.550231 109 14 17
-0.307111 1.32367 1.01136 189 42 50
-0.42366 0.465576 0.920692 221 208 192
-0.0543686 0.390333 0.760146 225 235 222
-0.0484481 0.393282 0.767237 225 235 222
0.032864 1.63099 0.483033 156 153 136
-0.957126 1.58811 1.37964 158 155 138
-0.285674 1.18476 1.0597 234 215 200
-0.373745 1.37931 1.17848 178 45 51
-0.323009 1.40472 1.02581 183 40 44
-0.613092 1.54918 1.48315 126 117 102
-0.373745 1.37931 1.17848 178 45 51
-0.28597 1.41757 0.954766 176 40 44
-0.287215 1.41715 0.953991 176 40 44
-0.298574 1.28484 1.0209 199 156 147
-0.13083 0.805773 1.03928 87 76 70
-0.258825 1.38938 0.936318 226 179 172
0.0731247 0.84368 0.831722 127 112 102
-0.225483 1.24685 0.926322 237 222 204
-0.214594 1.17774 0.953095 227 225 200
-0.286513 1.14512 1.09734 200 51 55
-0.251155 1.1634 1.02009 236 209 191
-0.974856 1.58855 1.42294 122 120 99
0.203116 1.64601 0.32478 140 136 124
0.0134531 0.480429 0.68064 206 193 176
-0.00451125 0.455016 0.667398 125 118 102
-0.0929254 0.332003 0.833528 229 222 202
-0.174307 0.247638 0.930851 168 165 148
-0.918671 1.72737 1.35651 90 88 75
0.0944775 -0.07906 1.30859 214 208 192
-0.3074 1.19674 1.097 231 214 198
-0.310849 1.13499 1.1672 226 224 205
-0.17937 1.0896 0.967027 217 201 182
0.0140363 0.862882 0.896674 70 54 54
0.194135 0.810054 0.687841 77 50 46
-0.247606 1.13763 1.03312 198 56 65
-0.252693 1.16256 1.01939 236 209 191
-0.3074 1.19674 1.097 231 214 198
-0.17937 1.0896 0.967027 217 201 182
-0.247676 1.13763 1.03303 198 56 65
-0.247676 1.13763 1.03303 198 56 65
-0.286584 1.14547 1.09723 200 51 55
-0.458658 2.28594 0.757311 89 89 81
-0.318849 1.18851 1.12252 244 214 191
-0.29988 1.1974 1.08439 238 226 206
-0.314301 1.17833 1.12461 254 214 195
-0.242895 1.21827 1.08497 251 207 190
-0.345688 1.21157 1.2079 185 73 73
-0.27807 1.19516 1.04126 165 95 87
0.0561431 1.46521 0.43815 168 164 147
0.0540637 1.45702 0.438384 142 134 116
-0.370174 1.35605 1.12925 247 211 189
-0.325028 1.31474 1.05708 169 60 63
-0.339459 1.37076 1.05381 251 211 198
-0.377047 1.40952 1.12803 171 65 67
-0.323111 1.38866 1.03806 156 63 57
-0.32343 1.37938 1.01522 254 224 207
-0.250493 1.3771 0.925108 171 44 51
-0.353549 1.36946 1.07702 170 55 62
-0.30593 1.35055 0.990855 151 67 63
0.039642 0.896938 0.91085 171 36 48
0.00963967 0.877574 0.870134 156 49 55
-0.00537343 0.876918 0.93963 144 96 94
0.0584031 0.865188 0.862885 80 29 26
0.174797 0.911212 0.825354 81 7 6
0.191066 0.78032 0.680977 159 129 118
0.0743408 0.825715 0.830532 165 154 143
-0.259775 1.12572 1.06238 157 77 76
-0.235568 1.12318 1.02782 248 226 199
-0.312913 1.12551 1.18576 163 59 58
-0.284126 1.11863 1.12461 246 217 199
-0.194786 1.10563 0.978561 243 230 208
-0.280222 1.10004 1.15041 250 210 198
-0.23204 1.09461 1.05041 247 208 189
-0.379477 1.23134 1.8349 124 109 93
-0.252677 1.13562 1.04313 182 44 52
-0.234637 1.13134 1.02073 252 223 204
-0.185485 1.13099 0.952301 157 68 67
-0.245021 1.04231 1.13156 253 220 206
-0.256603 1.04125 1.15824 248 218 202
-0.225179 1.03051 1.08848 247 209 197
-0.182261 1.06031 0.979867 189 44 50
-0.211637 1.08439 1.02227 165 75 77
-0.213247 1.08027 1.03111 237 203 196
-0.200305 1.06876 1.01462 166 78 77
-0.188884 1.06552 0.997292 166 75 74
-0.208352 1.06033 1.02956 255 214 205
-0.233822 1.05698 1.0893 156 102 89
-0.237163 1.05749 1.09915 255 220 209
-0.214933 1.053 1.05063 152 87 79
-0.299957 1.23709 1.05469 152 66 69
0.00628217 0.824291 0.913028 150 142 129
-0.659156 1.73534 1.3099 102 98 87
-0.278992 1.30384 0.97405 245 206 190
-0.273577 1.39984 0.946436 156 57 59
-0.265143 1.44391 0.928455 131 40 32
-0.651687 1.94218 0.598857 84 85 69
0.0841346 1.56398 0.379054 167 164 147
-0.524036 1.59744 1.416 143 129 118
-0.485198 1.62082 1.40612 108 94 83
0.126912 1.4788 0.387093 160 157 140
-0.707614 1.4968 1.50199 142 133 118
0.0988435 -0.0987273 1.31989 155 144 125
-0.116063 0.443397 0.772638 28 49 52
-0.37247 1.45632 1.08276 187 89 88
-0.388576 1.3372 1.22602 171 74 76
0.122969 1.2331 0.701138 87 2 2
-0.449586 1.95684 0.568934 50 46 35
0.122969 1.2331 0.701138 87 2 2
-0.0594933 0.367192 0.78589 117 182 188
0.0931533 0.439742 0.6279 138 135 118
-0.413808 0.397512 0.942844 1 1 1
-0.720808 1.89991 0.628661 114 112 99
0.239732 1.63755 0.315957 143 140 125
-0.228719 0.385939 0.863501 159 152 133
-0.168466 0.434972 0.813548 172 165 147
-0.00468843 0.183643 0.777345 133 130 113
-0.150252 0.438747 0.840224 172 165 147
-0.711678 1.95503 0.569827 155 154 136
0.209667 1.67714 0.305286 164 161 144
-0.135938 1.69372 0.760769 164 155 140
-0.272537 1.21293 1.01901 215 57 71
-0.652765 1.72423 1.31791 121 119 105
0.187175 1.45595 0.381182 120 111 96
0.0790275 1.48037 0.416213 120 114 100
0.0612754 1.49159 0.428449 177 174 157
-0.245584 1.19334 0.978122 230 218 194
-0.784475 1.6286 1.30603 140 136 124
-0.627367 1.65775 1.36238 153 150 135
-0.691667 1.58236 1.36935 106 99 84
-0.267659 1.46861 0.936015 245 215 202
-0.760619 1.60529 1.32989 74 71 56
0.316369 0.882787 0.825465 134 35 38
0.0328363 0.464925 0.649226 183 176 157
0.194202 0.430242 0.58292 152 149 132
-0.261855 1.38134 0.934702 222 219 195
-0.308412 1.26042 1.06215 242 222 208
-0.723826 1.60648 1.34213 154 148 134
-0.610231 1.81349 0.626732 98 95 80
-0.613023 1.80512 0.635957 141 138 123
0.127714 1.60308 0.347701 106 103 87
-0.539851 1.91553 0.574933 103 101 86
-0.236024 0.367102 0.868258 185 179 157
0.197085 0.327993 0.580472 151 148 133
0.232299 0.38308 0.598142 109 106 91
0.288355 1.53398 0.329467 153 149 137
-0.287234 1.37628 0.963575 248 201 188
-0.0428069 1.51516 0.543996 214 148 143
-0.327837 1.34945 1.04085 250 215 196
-0.294379 1.49836 0.957314 186 43 47
-0.719249 1.65877 1.31694 133 129 117
0.182305 0.49146 0.599779 176 169 153
0.20118 0.438519 0.582473 111 108 91
0.0580896 0.467741 0.645438 180 171 154
-0.23978 1.10939 1.04468 240 217 199
-0.253213 1.1478 1.03386 178 66 70
0.170954 0.910546 0.816413 114 8 12
-0.0148973 0.856356 0.921078 175 151 141
-0.440502 1.96293 0.571642 119 117 102
-0.435211 1.97139 0.573567 85 83 70
-0.268014 1.78754 0.687068 103 100 85
-0.441396 2.00473 0.576785 128 124 112
-0.501064 1.88977 0.609478 93 89 77
-0.656943 1.80706 0.630083 101 98 83
-0.0594933 0.367192 0.78589 106 185 192
-0.296263 1.83868 0.657505 134 131 116
-0.0428069 1.51516 0.543996 214 148 143
0.18291 0.491104 0.600435 176 169 153
-0.138361 0.631028 0.828056 26 14 3
0.0539907 0.166286 0.70048 144 141 124
-0.100304 0.341992 0.841403 14 17 9
-0.731652 1.61394 1.33905 156 151 137
-0.267109 1.1817 1.02727 185 106 101
-0.227803 1.28285 0.920419 250 199 186
-0.126119 0.413984 0.815961 9 22 28
0.244439 1.59396 0.334429 100 97 82
-0.553722 1.9345 0.55199 140 137 122
-0.359636 1.86631 0.641863 131 129 116
0.238681 1.49755 0.343271 163 160 143
-0.206395 1.11694 0.98518 252 238 221
-0.316959 1.28623 1.05212 156 74 65
-0.344833 1.45141 1.04668 239 227 205
-0.617649 1.66576 1.3541 77 74 59
-0.274307 1.43703 0.942865 170 41 45
-0.633384 1.76293 1.32406 132 132 120
-0.168493 0.636193 0.851681 194 184 174
-0.447781 2.11631 0.846439 111 107 95
-0.495218 2.05286 0.701332 111 107 95
0.176335 -0.153341 1.3495 149 144 124
0.123603 0.646271 0.884138 226 210 195
-0.231516 0.701802 0.951957 0 0 0
0.426983 0.897298 0.853476 153 26 35
0.591291 1.37335 1.00892 187 179 176
0.0226305 0.24447 0.705824 121 118 103
-0.928046 1.58062 1.39548 158 152 136
0.228893 0.420326 0.602994 99 93 77
-0.458947 2.0897 0.596464 144 141 124
-0.755186 1.5769 1.3497 126 123 108
-0.283961 1.42004 0.960902 192 28 37
-0.316066 1.3692 1.00458 218 192 175
0.0433831 0.28847 0.677675 125 122 105
0.221517 1.6992 0.307946 124 121 104
-0.403152 1.89509 0.617551 151 148 130
0.322497 0.814989 0.799793 80 61 54
0.0829505 0.436568 0.605736 131 124 108
-0.314679 1.42805 0.99239 223 195 177
-0.455137 1.96259 0.569576 104 101 84
-0.300918 1.89246 0.66565 103 104 88
-0.404741 1.95609 0.620261 95 96 80
-0.292844 1.95211 0.663127 158 155 138
0.240095 1.68635 0.30121 171 167 142
-0.342881 1.94491 0.641239 149 151 130
0.219042 0.479515 0.599269 133 124 109
0.360723 0.363363 0.639323 121 115 99
0.193341 0.429986 0.586475 161 155 139
0.0518438 0.442101 0.618299 164 159 140
-0.0589268 0.350561 0.768598 146 164 151
-0.00856977 0.209201 0.753862 159 156 139
-0.162 0.378822 0.832405 145 144 130
0.161217 1.52374 0.351867 128 125 108
-0.443982 2.13118 0.617801 147 144 130
-0.357488 2.12251 0.654257 141 139 126
-0.449228 2.10427 0.584183 92 89 74
-0.442327 1.86148 0.62688 151 148 131
0.189628 1.58733 0.328651 173 166 150
-0.0365954 1.56709 0.487655 193 137 129
-0.450117 1.85106 0.674562 111 106 87
0.264329 1.61344 0.309308 152 153 139
0.170998 1.64356 0.322906 123 121 102
-0.472197 1.87059 0.655344 107 104 87
0.253756 1.61173 0.322566 95 93 80
0.246189 1.60693 0.3234 152 150 135
-0.399004 2.07216 0.60895 91 88 74
-0.401681 1.99989 0.586869 132 129 115
-0.313364 1.97102 0.656117 115 112 95
-0.329961 1.94919 0.638304 117 116 98
-0.394006 1.94861 0.634936 114 113 93
-0.504577 1.83431 0.696433 116 114 99
0.253741 1.61227 0.324338 95 93 80
-0.655183 1.79927 0.631341 153 150 133
-0.126213 1.77036 0.745798 114 108 94
-0.488711 2.00606 0.550072 151 148 131
-0.336091 1.86227 0.643252 149 146 129
-0.303586 1.72183 0.770595 127 120 104
0.363779 0.44089 0.635179 157 150 134
-0.667318 1.75817 0.700498 159 153 137
-0.662218 1.76603 0.688752 135 132 115
-0.257808 1.36771 0.937619 168 40 41
-0.723877 1.60611 1.34181 129 123 107
-0.499654 1.66908 1.33812 109 103 91
-0.141756 0.44122 0.797983 169 166 147
-0.182106 1.77392 0.73138 117 114 96
0.194148 1.52538 0.32743 142 136 120
-0.366513 1.87838 0.652345 115 112 95
0.201135 0.438324 0.584005 136 130 114
0.10396 0.285381 0.621376 150 147 130
-0.401864 1.96296 0.625173 90 90 72
-0.412152 1.99756 0.5888 118 115 98
0.202704 1.60004 0.329467 161 158 141
-0.155964 0.629226 0.82222 192 186 170
-0.414288 2.03612 0.599822 127 128 112
-0.400771 2.02487 0.602098 126 124 111
-0.400771 2.02487 0.602098 126 124 111
-0.452297 1.99316 0.551216 132 129 111
0.814646 1.02194 1.12101 199 194 190
0.880081 1.36004 1.27452 201 200 195
-0.253151 0.51261 0.838764 223 209 196
-0.259862 0.51241 0.866287 223 209 196
-0.00362183 -0.108705 1.19121 194 195 189
-0.34137 2.01633 0.756757 123 121 108
-0.185185 1.20884 0.917194 184 45 52
-0.0432912 0.172256 0.786785 124 120 109
-0.4336 2.15699 0.596821 119 119 107
-0.371648 1.52512 1.11394 0 0 0
-0.973347 1.54501 1.43156 146 142 130
-0.180154 0.465001 0.827093 156 149 133
-0.870212 1.48018 1.57767 147 139 126
-0.272238 0.68751 0.900899 226 221 209
-0.25867 0.761032 1.05009 199 202 195
-0.00351527 0.455351 0.662877 123 116 103
0.423457 1.06045 0.822693 0 3 0
0.0782005 0.849543 0.820699 156 132 128
0.397683 0.0488579 1.06474 160 157 142
-0.264271 1.38822 0.945009 210 192 176
-0.921158 1.72493 1.31693 113 111 99
0.109121 1.40549 0.554425 42 9 11
0.0584124 1.4372 0.535357 168 145 135
0.323594 0.708066 0.718478 152 132 121
0.182259 0.414097 0.587627 140 137 122
0.0946206 1.43573 0.461925 189 64 70
-0.783344 1.46477 1.51953 151 147 135
-0.400939 1.87838 0.641792 109 107 94
-0.28022 1.78083 0.69235 142 138 126
-0.585112 1.57171 1.46977 137 133 122
0.244001 0.848511 0.836175 49 21 18
-0.525517 2.0437 0.576969 97 95 82
0.0510981 0.18445 0.706903 109 105 94
-0.484771 2.03506 0.544305 146 144 129
-0.364416 2.03114 0.641244 58 58 46
-0.499241 2.03022 0.569333 114 110 98
-0.366545 2.08399 0.63075 125 125 113
-0.0223179 0.361173 0.736654 122 119 104
-0.230261 0.658328 0.916712 161 144 137
-0.211725 0.654221 0.954369 10 3 2
0.264297 1.61465 0.308795 151 149 134
-0.631244 1.60077 1.41287 133 129 117
-0.692393 1.62762 1.34779 137 133 121
-0.716052 1.63574 1.33885 132 128 116
-0.801726 1.59056 1.33251 118 115 103
-0.5804 1.99305 0.564966 158 156 144
0.0709999 1.56568 0.383542 116 112 100
0.15449 1.54289 0.357276 121 118 103
-0.696144 1.73495 0.768744 139 135 123
-0.728175 1.74528 0.763344 165 162 145
-0.72632 1.74231 0.735524 139 136 119
0.0140034 1.51353 0.515543 148 142 130
-0.138196 0.640049 0.842474 191 185 179
0.277445 0.518847 0.601445 132 124 112
0.00972763 0.448638 0.655159 163 157 143
0.207873 0.492748 0.601864 161 157 141
-0.208392 1.86525 0.690996 151 147 135
-0.240612 1.85587 0.671085 100 98 83
-0.439286 1.98432 0.574739 145 143 130
-0.463976 2.0873 0.550181 147 145 133
-0.43372 1.90582 0.605473 149 150 136
-0.550309 1.99945 0.583609 120 118 105
0.364652 0.415889 0.636214 129 126 111
0.117469 0.850183 0.828668 134 115 108
0.480708 0.59892 0.753369 137 130 114
0.0807263 1.54921 0.380977 174 170 158
0.195124 1.47869 0.367893 122 116 102
0.212544 1.48972 0.351715 174 168 152
-0.596267 1.69099 1.34128 86 84 72
-0.393907 2.01191 0.601701 75 76 62
-0.365112 1.92103 0.634131 78 79 65
-0.212337 1.21129 0.92807 167 51 51
-0.41317 2.10151 0.589686 138 135 119
0.262526 0.848744 0.815743 79 27 31
-0.45584 1.82338 0.668828 156 155 137
0.252725 0.643518 0.561008 230 220 202
0.452596 0.886022 0.99223 144 23 28
0.538524 1.72188 1.18221 100 96 85
-0.35727 0.396305 0.905472 212 203 186
0.330696 0.322024 0.632979 142 139 124
0.456737 0.441867 0.696099 77 74 59
0.427904 0.431773 0.664438 151 148 133
-0.454903 1.96257 0.569006 112 109 92
-0.633302 1.81198 1.32884 76 77 63
0.456529 0.787657 0.847201 112 97 84
-0.426382 1.95193 0.597291 110 107 90
-0.340685 2.13248 0.719118 128 126 114
-0.439895 1.99463 0.575547 99 97 82
-0.716653 1.76054 1.29473 141 139 126
-0.731819 1.7675 1.29389 103 101 88
-0.805145 1.63654 1.31819 80 77 62
0.523925 1.14187 0.873872 86 6 5
0.458488 0.575024 0.724299 114 108 94
-0.471535 1.86883 0.617013 148 145 130
-0.596152 1.78589 0.673948 165 162 145
-0.59392 1.79839 0.671928 121 118 101
0.456258 0.513777 0.709267 161 154 138
-0.457567 2.02528 0.572843 130 127 110
0.0725187 0.143925 0.696221 161 158 141
-0.45563 1.97503 0.565023 144 141 124
-0.35163 2.06017 0.652404 70 68 55
-0.457109 2.02474 0.571371 130 127 110
-0.406472 0.397942 0.916805 1 1 3
0.249327 0.931894 0.759181 137 10 17
0.202354 -0.105271 1.28857 130 124 110
-0.746933 1.91683 0.606443 152 149 132
0.484305 1.17454 0.80377 186 34 46
0.50496 0.771309 0.98361 145 131 118
0.433881 0.791469 0.829356 157 143 134
0.536947 1.16552 0.877358 33 1 2
0.310349 0.0933902 0.72775 125 121 109
0.534295 0.807194 1.07084 11 3 1
0.80245 1.31871 1.43897 183 176 166
0.202112 0.498141 0.633186 145 139 125
0.336024 0.85942 0.845315 31 5 4
0.259225 0.851198 0.823979 75 24 25
0.402639 0.936059 0.870531 80 8 10
0.321071 0.840517 0.81381 161 134 123
0.593254 1.62062 1.21347 100 30 28
0.418012 0.771737 0.785634 160 147 138
0.495046 1.1082 0.840572 149 17 28
0.297007 0.0450305 0.57134 101 98 83
0.175245 0.394339 0.591931 161 158 143
0.464854 0.314593 0.756684 165 162 145
0.570952 0.44455 0.871459 157 152 133
0.458956 0.588065 0.740883 172 165 149
0.504216 0.424878 0.785021 162 159 142
0.375468 0.825166 0.805832 147 119 115
0.517891 0.760072 0.87501 133 123 110
0.501124 0.424233 0.790019 162 159 142
0.246435 0.430479 0.604684 158 152 138
0.506175 0.717781 0.852971 161 152 137
0.410634 0.951424 0.859173 183 33 44
0.936647 1.66162 1.02119 127 123 111
0.936851 1.67646 1.01938 140 138 126
-0.364578 2.01251 0.6299 149 147 134
0.528355 0.418687 0.819187 125 119 103
0.442636 0.395966 0.696793 146 143 128
0.38791 0.322845 0.667321 120 117 102
0.471734 0.414601 0.725342 135 132 113
0.310048 1.4997 0.358305 137 131 115
0.388571 0.920516 0.852355 135 10 16
0.540132 0.522613 0.816277 160 154 138
0.542235 0.513177 0.822334 123 117 101
0.425736 0.333067 0.712475 145 142 127
0.454508 0.227249 0.798584 132 129 112
0.492103 0.566979 0.755873 165 158 142
-0.347419 2.09469 0.661086 117 113 102
0.353903 0.212227 0.609445 149 145 133
0.321702 1.92849 1.13464 230 226 215
0.716899 0.814562 1.57236 174 35 42
0.704503 0.819725 1.59913 174 35 42
0.53364 0.817657 1.23011 174 28 40
0.19023 -0.108635 1.30378 138 135 118
0.230577 -0.00651031 0.953231 137 129 108
0.350737 0.948503 0.842833 198 41 52
0.192787 -0.115381 1.46627 191 188 183
-0.742396 1.73461 0.746315 145 139 123
0.81362 0.878567 1.61396 198 191 185
0.591091 1.55239 1.2711 79 14 18
0.423649 0.902363 0.893898 191 37 47
0.781545 1.06178 1.66485 143 24 28
0.203454 0.0925861 0.527773 125 119 99
0.253721 -0.015028 0.583277 155 152 137
0.253721 -0.015028 0.583277 155 152 137
-0.377971 2.16833 0.668969 83 79 70
0.291298 0.775629 0.757566 140 105 101
0.511542 1.16251 0.84053 195 41 51
0.293812 0.0506606 0.63264 107 104 89
-0.394145 0.399142 0.904198 1 2 0
0.523157 1.69976 1.16234 51 44 36
0.352003 0.75031 0.736035 166 147 140
0.308294 0.129358 0.667528 90 91 77
0.273609 -0.000501002 0.731595 161 160 142
0.222462 -0.036842 0.578261 190 190 182
0.422867 0.0811538 0.927865 141 138 121
0.955344 1.61843 0.996377 118 111 101
0.219715 0.458037 0.612127 99 95 84
-0.777053 1.94013 0.591298 155 151 139
0.428799 0.755239 0.793478 105 95 83
1.03323 1.79497 1.17873 121 121 111
0.29984 0.0195241 0.574898 157 155 138
0.265275 -0.0157835 0.720977 188 183 177
0.368427 0.377593 0.63395 148 144 132
0.313352 0.112129 0.659785 138 138 126
0.331626 0.184162 0.642521 96 92 81
0.313352 0.112129 0.659785 138 138 126
0.446868 0.785159 0.826193 167 154 141
0.508468 0.717668 0.849873 185 176 161
0.395805 0.70293 0.715874 179 168 156
-0.335609 2.1617 0.684456 92 89 80
1.0415 1.57569 0.98234 108 104 92
0.375204 0.659812 0.688575 184 172 160
0.363833 0.7826 0.768114 156 141 134
0.419567 0.733515 0.74917 175 163 151
0.455346 0.200927 0.825435 165 162 145
0.29263 0.0872399 0.512881 163 161 146
0.503564 0.400315 0.772026 174 171 154
0.212686 0.471389 0.605183 147 143 132
0.463931 0.290833 0.782619 106 107 89
0.36918 0.539597 0.626677 126 120 108
0.897621 1.70762 1.06677 90 86 75
0.181857 0.0148855 0.525843 165 157 139
-0.350445 2.15823 0.686092 111 109 97
0.482548 0.611086 0.762339 181 175 159
0.551909 0.505521 0.821413 174 168 152
0.477054 0.676365 0.773536 136 128 115
0.473612 0.663594 0.76982 174 168 154
0.424539 0.22502 0.768767 165 162 145
0.507934 0.178467 0.981976 122 119 102
0.455614 0.226678 0.798443 119 116 99
0.425876 0.234707 0.759874 138 135 118
0.419888 0.203816 0.793851 134 131 114
0.471388 0.401556 0.748046 113 110 93
0.446223 0.310657 0.735616 96 92 80
0.482532 0.354464 0.77012 129 126 109
0.195687 0.44368 0.601345 109 105 94
0.24919 0.40468 0.59758 148 144 133
-0.49002 2.12872 0.570576 112 108 96
0.377722 0.742989 0.732009 157 143 132
0.260171 0.521243 0.616205 168 160 149
0.895168 1.7281 1.08471 129 124 118
1.05651 1.62124 1.0201 75 71 60
0.333071 1.49737 0.36258 178 171 155
0.471388 0.401556 0.748046 113 110 93
0.446223 0.310657 0.735616 96 92 80
