ply
format ascii 1.0
comment Created by Open3D
element vertex 1135
property double x
property double y
property double z
property uchar red
property uchar green
property uchar blue
end_header
2.0835 3.66377 18.4544 152 145 131
1.83326 4.11875 18.3693 157 151 139
3.98957 -1.90976 15.4084 132 126 112
3.37293 0.77138 16.7199 138 5 17
0.961045 4.68689 19.5564 161 158 143
4.27495 1.56562 16.9974 35 4 5
2.74021 3.23561 18.4218 191 180 160
0.219412 2.49586 18.1712 100 90 78
2.61237 -2.73343 15.8228 74 72 64
0.586993 4.37818 18.5568 160 157 142
2.51036 -4.39079 18.1906 158 154 143
1.01531 4.83475 19.6641 113 111 99
3.28732 -4.72763 17.3925 204 201 194
3.02909 -4.38318 17.2059 168 161 141
2.13143 -0.828675 18.7524 45 2 4
2.62539 -4.57425 17.7912 154 152 137
3.20689 -4.6577 17.5486 144 142 129
2.46361 -4.06252 18.089 121 119 107
2.91377 -4.71903 17.9612 131 129 116
2.91377 -4.71903 17.9612 131 129 116
4.10865 -4.0559 15.521 198 198 188
3.1159 -2.75861 15.7072 164 160 145
2.35951 -1.31155 16.2809 180 168 154
3.25051 -0.882892 15.8946 180 171 156
2.94273 -1.15826 15.939 150 141 126
2.55879 -1.21949 16.1286 185 176 161
2.63004 -1.3888 15.9764 169 159 149
3.22026 -1.16086 15.8086 115 105 93
4.21904 -1.06799 15.6949 144 135 120
2.55022 -1.33291 16.0564 129 119 109
3.29852 -1.54421 15.5667 127 117 105
1.98704 -1.6217 16.3534 133 123 113
2.52492 -1.55237 16.0076 124 114 104
3.53968 -1.43257 15.4349 172 166 152
6.05927 -1.59244 18.145 218 210 199
2.82241 -1.41656 15.8907 160 150 140
9.01353 2.26404 19.5828 103 100 83
1.55085 3.66369 18.3983 124 121 104
1.25424 3.77276 18.2787 125 122 105
7.54572 3.37828 16.4931 173 170 153
6.39029 3.70567 18.8134 136 128 117
2.65603 3.56049 18.4502 138 128 118
1.96971 3.54249 18.4454 159 153 137
2.18453 3.91839 18.5134 150 143 127
4.99868 -1.87076 15.75 133 126 108
1.35787 4.00914 18.3078 125 122 107
1.0184 4.07999 18.2348 162 159 144
1.99301 4.39393 18.5019 161 157 145
7.28609 2.51412 16.6813 130 127 110
2.4174 3.38678 18.5029 149 139 124
8.96017 3.15033 19.4236 161 158 141
6.75808 2.67946 16.1421 162 160 142
2.28713 2.81343 19.0062 164 127 119
2.53193 2.55392 18.2196 156 34 43
0.304377 2.05854 19.0074 135 121 110
7.19722 2.35257 17.7984 163 136 124
8.64764 2.65986 19.3092 93 90 73
0.14986 2.94665 18.3307 140 136 124
1.34265 3.08139 18.4502 118 114 103
0.0742095 3.05018 18.3534 113 109 97
6.48422 3.16771 16.1573 127 124 109
6.39379 3.17851 15.9864 170 164 150
6.81471 2.8766 16.1743 124 121 104
2.13991 3.01135 18.786 121 105 92
3.96848 -0.500132 15.9404 187 175 161
2.55268 -1.63108 15.8714 170 162 151
3.37055 -1.26232 15.622 178 168 156
2.92928 -1.25717 15.8809 131 121 111
2.67246 -1.14192 16.0211 120 110 100
2.1945 -1.14577 16.4891 122 109 101
2.25699 -1.10563 16.4055 161 148 140
1.60666 3.76692 18.3696 126 121 107
6.76777 2.74955 16.177 115 112 95
3.64699 -1.59401 15.4368 172 162 150
2.25131 -1.88186 16.1997 124 115 104
6.4444 -2.87264 17.8884 9 3 1
3.85216 -3.22659 15.3656 149 145 134
3.18753 -3.41176 15.7919 154 150 139
3.95844 -3.46625 15.2475 132 130 118
3.43532 -3.48443 15.8075 100 96 85
2.10691 -3.48539 17.1925 206 207 201
2.62296 -3.34108 16.1905 122 118 107
3.62527 -3.20923 15.613 97 93 82
2.60267 3.53587 18.648 87 68 61
4.01049 -3.74827 15.1116 153 149 137
3.94963 -3.97522 15.3637 164 162 149
3.98657 -3.93833 15.1471 202 200 188
3.77018 -2.48951 15.3555 153 147 135
3.36573 -2.52912 15.5019 109 105 93
2.9878 -2.58067 15.7345 131 125 111
4.86148 -2.54624 15.8221 154 151 134
4.83303 -2.59431 15.7096 116 113 96
2.36751 -2.81206 16.1824 106 102 90
2.43775 -2.49208 16.0491 169 163 151
2.14234 -2.65691 16.3306 168 164 152
3.97319 -2.36005 15.5291 102 96 84
3.75319 -2.93524 15.4371 87 83 72
3.3023 -2.71836 15.6394 108 104 92
2.49356 -2.8299 16.018 168 164 152
4.64276 -2.70042 15.4286 153 145 126
2.51306 -0.527832 16.5752 154 137 129
4.33143 -0.193353 16.6486 113 84 76
2.51535 -0.222511 17.0067 163 129 120
2.67145 -1.14601 16.0592 120 110 100
2.25699 -1.10563 16.4055 161 148 140
3.70246 -0.549545 15.9333 174 160 147
2.03331 -0.726292 17.9353 152 130 119
4.12237 -0.550591 15.9617 191 175 162
8.50271 1.64528 20.3527 197 194 185
8.33228 1.85535 19.8492 126 118 104
9.27146 1.92891 20.0734 199 195 183
8.96325 2.15894 19.59 121 115 99
2.53587 -0.153918 16.9859 114 23 28
4.23806 -0.061345 16.6347 157 132 122
4.31247 -0.0317826 16.619 123 50 53
4.07052 0.0781425 16.4936 199 157 150
4.14706 0.446695 16.6812 151 11 20
1.11004 4.44115 18.6088 170 167 152
3.03145 -1.93785 15.6532 108 102 90
3.50114 -1.86152 15.5589 124 116 103
1.9548 -2.44071 16.4072 158 154 142
3.06917 -2.26336 15.5595 157 151 139
4.96056 -2.07312 15.7602 120 117 100
2.17819 -2.15116 16.1831 166 160 148
4.38805 -1.40328 15.5843 159 153 137
4.32056 -1.3933 15.6901 105 99 83
4.5988 -2.56589 15.4433 161 154 135
2.92928 -1.25717 15.8809 131 121 111
4.33736 -1.18064 15.5944 182 173 158
3.64699 -1.59401 15.4368 172 162 150
4.45271 -1.56186 15.5398 178 171 155
2.55268 -1.63108 15.8714 170 162 151
3.15617 -1.54304 15.6441 169 159 147
2.90231 -1.56024 15.7839 171 161 151
3.06795 -1.51998 15.7137 172 162 152
2.98781 3.41848 18.2054 208 189 174
6.23576 2.78085 16.1909 156 138 124
3.77083 -1.28338 15.5224 173 163 151
2.53038 -4.71018 17.8056 198 197 189
4.18119 0.299567 16.9748 198 37 52
2.64573 2.7257 18.2864 131 16 28
3.89893 -1.69611 15.5155 122 113 98
2.17915 -2.29217 16.2054 163 157 145
2.04465 -2.37043 16.3779 160 156 144
5.10279 -2.76422 16.0792 114 108 94
2.73667 -5.14506 17.8075 200 195 189
3.83443 -1.81139 15.5231 125 119 105
3.53982 -1.90244 15.4322 170 163 151
2.4343 -2.08232 15.8421 137 131 119
4.39427 1.39898 16.8638 77 0 0
7.50317 2.46031 16.5783 163 160 145
0.18376 2.37661 18.5549 101 93 80
8.81692 2.86669 18.8807 156 153 136
4.04885 -0.489641 16.0118 156 142 129
3.26146 -0.423028 16.1319 165 151 140
4.85335 -0.197814 18.535 173 115 114
4.34656 -0.0920501 16.6 166 122 121
3.06993 -0.0326068 16.5779 153 122 119
3.44493 0.13521 16.5945 93 12 18
2.25868 4.46156 18.9748 140 136 125
2.48157 3.0331 18.9166 185 144 140
2.63997 -3.54226 16.3501 127 123 111
3.89576 -3.28209 15.3032 86 82 71
3.61879 -3.0075 15.541 150 146 135
3.94242 -3.35751 15.2876 145 141 130
3.2939 -3.44233 15.7857 146 142 131
2.00518 -2.29082 16.413 124 118 106
4.23265 -3.87513 14.9769 147 144 127
4.71474 -3.69028 15.2885 147 139 120
2.75241 -3.75239 16.4107 104 100 89
4.69922 -3.67014 15.1825 147 139 120
4.25106 -1.74188 15.6036 162 156 140
3.25242 -4.9817 17.3439 174 172 157
5.07144 4.24726 19.7989 158 134 122
3.20275 -2.42726 15.5611 163 157 143
2.69848 2.88134 18.3994 185 172 158
2.59955 3.14762 18.6433 192 179 162
2.47728 3.60663 18.5266 154 146 135
4.39558 -3.85854 14.8019 203 199 189
4.7211 -1.72514 15.7317 165 156 141
1.94098 -1.73735 16.5231 162 154 143
6.80215 2.13998 16.375 170 26 38
6.97508 1.76446 16.6226 149 133 118
8.71181 1.74118 20.293 167 160 149
2.21624 -0.406345 17.2457 100 15 20
2.25922 -0.510587 17.2 142 114 110
1.85624 -0.837337 17.6112 204 210 201
1.95614 -0.905955 17.2114 118 100 93
3.25242 -4.9817 17.3439 174 172 157
2.97578 -2.25078 15.5913 128 122 110
2.19748 -2.82749 16.3037 118 114 102
5.48925 -2.94437 16.8853 136 133 116
2.67366 3.58393 18.2725 125 118 106
3.15232 0.0502833 16.64 91 11 18
3.19633 0.953378 16.6173 158 21 33
4.74203 -1.46499 15.8554 148 137 121
4.64114 -3.86254 15.3222 156 144 122
4.64114 -3.86254 15.3222 156 144 122
4.26942 -1.61597 15.6102 155 149 133
1.88633 -0.75881 18.076 109 15 18
4.82841 -0.109001 16.5328 151 20 28
1.89125 -1.14603 16.9957 141 131 122
1.22027 0.0902206 18.3706 44 0 1
2.8025 -0.105831 16.7003 156 126 118
8.04565 1.82215 19.7991 139 132 118
7.05111 2.19361 16.7331 177 163 150
1.38694 3.81821 18.3357 152 149 132
2.73569 -4.87559 17.685 114 110 98
2.62399 -4.62966 17.5335 134 130 119
3.14432 -5.18175 17.5624 199 198 193
7.29124 1.62098 18.2777 210 198 198
3.67685 0.12039 16.5713 84 9 13
3.17842 3.36224 18.082 224 216 201
4.65617 -3.52059 15.1467 138 131 109
2.47516 2.72595 18.4342 161 137 129
2.62713 -5.00754 17.4555 204 201 196
2.87038 4.10169 19.0033 106 101 95
0.763189 2.15824 18.2152 182 179 172
2.69935 0.919095 16.6635 0 1 0
2.91529 2.53403 17.8869 102 12 17
0.4268 2.22331 19.0785 117 101 88
3.93389 0.0348694 16.4116 167 151 138
3.37715 0.0131407 16.4322 171 149 138
2.69375 3.44461 18.564 180 33 41
3.19417 2.97863 18.0224 165 31 38
1.8018 -0.604433 17.559 128 22 28
1.8018 -0.604433 17.559 128 22 28
2.13913 -2.88207 16.4087 141 137 125
5.71244 -3.28459 17.3226 203 203 195
1.8872 -2.23615 16.6238 145 139 127
6.36376 3.14821 16.6616 154 148 134
4.25428 -1.36223 15.9882 139 133 117
8.41239 2.36893 18.3256 121 118 101
1.38261 0.0315352 17.566 61 13 15
3.96989 -3.21472 16.9742 130 125 114
1.72242 4.25027 18.3224 111 108 91
2.86019 3.30882 18.3028 208 176 160
1.54915 3.83422 18.3172 163 160 143
3.2328 -1.11122 15.8352 167 157 145
3.4547 -2.65099 15.5285 165 163 150
2.90622 -1.30104 15.8902 173 163 152
4.40771 -1.32989 15.6324 171 165 149
2.89296 -1.19304 16.0256 170 162 149
3.5863 -0.0798461 16.3667 166 147 133
4.28358 -1.20171 15.6426 135 129 115
2.33804 -0.286225 17.3393 129 29 38
3.51612 -0.417233 16.0734 136 120 107
2.90633 -0.491179 16.3483 141 127 116
3.13459 -0.782311 15.9983 139 127 115
3.75971 -0.509734 15.9732 147 133 120
3.85336 -0.61427 15.8596 153 139 126
3.43265 -0.569428 15.9698 174 160 147
3.42085 -0.664678 15.9845 138 126 113
2.953 -0.699849 16.1942 164 150 139
2.94047 -0.928392 16.0072 111 103 90
3.66298 -1.96365 15.385 165 159 143
2.73843 -2.02877 15.7909 114 106 95
3.53641 -2.01789 15.4971 156 146 136
2.13653 -2.10933 16.2636 145 138 127
3.1119 -2.08701 15.4684 178 171 155
2.19321 -2.19305 16.2441 167 159 148
3.59258 -1.84029 15.4594 158 149 137
2.29282 -1.93395 16.0898 169 161 150
2.37063 -2.02625 16.0235 170 162 151
3.40706 -1.91996 15.3847 115 109 97
4.11074 -1.9375 15.4448 99 93 79
2.50386 -1.97515 15.984 128 118 108
3.29158 -2.25418 15.5394 167 161 149
3.29991 -2.28093 15.4717 103 97 85
3.24872 -2.37276 15.4891 131 125 113
2.54545 -2.42005 15.9633 142 136 124
2.9187 -2.13552 15.7133 126 117 106
2.15148 -2.27284 16.3669 167 159 148
3.22854 -2.17117 15.5021 96 90 76
3.23046 -2.21039 15.5288 159 154 140
3.67415 -1.46133 15.5229 171 163 150
2.99188 -1.47887 15.7758 130 120 110
4.13285 -1.47899 15.4587 166 160 146
3.5434 -1.57385 15.5101 127 119 106
3.9394 -1.38623 15.5542 116 107 92
2.20628 -1.85983 16.3433 163 155 144
3.24774 -1.77094 15.6053 173 165 152
2.85079 -1.78409 15.7321 168 160 149
2.46792 -1.80493 16.0243 141 133 122
3.23863 -1.67883 15.5713 145 137 124
2.9747 2.74853 18.0572 152 32 41
2.79971 2.61418 18.2212 105 25 26
2.67657 2.78777 18.3703 186 147 142
3.22453 3.19518 18.1518 251 230 213
2.82515 3.20073 18.3195 139 90 84
3.23063 3.10048 17.8874 154 39 43
6.51013 2.85098 16.0949 136 133 116
3.07929 3.00591 17.9871 159 29 37
6.39917 2.78246 16.1074 149 140 127
2.96652 3.07191 18.1024 246 204 194
4.60661 1.77795 16.9138 160 41 47
2.29985 0.341191 17.0255 187 57 65
3.08271 0.305208 16.9916 148 24 34
2.58558 2.6443 18.4754 195 141 132
1.91732 4.3487 18.5373 152 149 134
1.65104 4.13655 18.321 158 152 136
1.0702 4.17453 18.356 135 132 115
1.79916 4.27084 18.3922 125 122 105
2.92404 0.0212373 16.7944 164 117 112
3.21367 -0.736165 16.0293 143 131 119
0.856028 3.90414 18.2243 146 143 128
2.36942 -2.71127 16.1707 126 120 106
3.44582 -1.3163 15.6102 177 167 155
3.86931 -1.28915 15.5403 167 160 144
3.30023 -1.5397 15.6274 129 119 107
3.02351 -1.61178 15.6912 180 170 160
3.28722 -1.03844 15.7133 119 107 95
2.9734 -1.04197 15.9536 126 116 104
4.03723 -1.27499 15.4642 167 158 143
3.69631 -1.23239 15.4991 165 156 141
3.48934 -1.21936 15.5875 175 166 151
3.02907 -1.13608 15.9086 133 123 111
2.5808 -1.08703 16.221 162 154 141
0.53462 3.79808 18.2849 137 134 118
3.32017 3.57414 18.0766 168 42 54
2.15199 3.67785 18.4956 129 123 107
6.46933 2.92329 16.0321 163 160 143
3.28748 3.40469 18.02 168 40 55
2.04839 3.37188 18.475 134 127 111
3.02879 -0.592002 16.1693 132 118 107
3.03142 -0.591407 16.1741 132 118 107
3.59656 -0.271695 16.1601 123 107 94
1.24985 3.76914 18.2544 127 124 107
2.49356 -2.8299 16.018 169 166 151
3.65242 -1.49912 15.5302 124 116 103
3.06108 -0.341633 16.3013 165 148 140
3.05498 -1.99076 15.6099 140 137 122
3.71818 -1.87953 15.4692 170 164 150
3.57421 -1.6724 15.4708 179 171 158
3.2208 -1.91292 15.5516 137 131 115
3.66827 -2.15618 15.4177 94 88 74
3.05869 -2.16746 15.586 166 157 144
4.06757 -1.99697 15.3733 157 151 139
3.05498 -1.99076 15.6099 140 137 122
3.56861 -1.98083 15.5815 113 107 95
3.75406 -1.91821 15.44 118 112 98
4.09191 -2.33172 15.3413 147 144 129
4.04582 -2.23834 15.2885 155 152 138
3.45563 -1.26174 15.6175 113 103 91
3.21685 -1.30043 15.7356 172 162 150
3.6477 -1.01156 15.6651 170 161 146
2.87247 -0.926791 16.0203 173 161 149
3.43603 -1.68858 15.4655 168 158 146
3.33921 -1.73316 15.6767 169 159 147
3.40332 -1.86552 15.5083 172 166 154
2.97152 -1.8799 15.6484 180 172 159
3.71859 -1.87964 15.4716 170 164 150
2.71985 -1.48181 15.8943 140 130 118
2.19817 0.465186 17.1236 164 43 50
3.53386 0.113054 16.5837 180 122 121
2.98625 0.0779151 16.8375 124 17 27
3.40654 0.0737505 16.5687 170 131 124
3.68742 0.0503423 16.5305 80 32 32
2.60776 -0.162743 16.9446 161 132 121
2.40482 -0.232193 17.1806 118 21 27
4.06874 -3.52697 15.2396 83 79 68
2.51589 -2.21057 15.9492 169 161 150
4.12149 -1.59081 15.3831 105 98 88
2.95448 3.01944 18.1201 172 37 43
3.34231 3.15593 17.8799 220 199 184
6.65544 3.03562 16.076 160 157 140
3.37442 1.08154 16.4402 131 9 20
4.00033 0.306531 16.8329 121 13 16
3.46573 -2.05967 15.4502 161 155 143
2.65031 -0.0854795 16.9005 127 14 20
3.15928 -1.21473 15.7387 172 162 150
3.50737 -1.41124 15.567 174 164 151
3.76474 -1.42254 15.4751 174 165 150
2.36508 2.92097 18.8858 59 2 10
3.18652 0.714062 16.6763 184 30 42
2.48293 -0.276054 17.0669 156 131 123
3.23807 -1.83322 15.5592 174 166 153
3.20148 -2.425 15.558 167 161 149
5.17143 2.35511 17.0279 170 32 37
2.80483 2.84029 18.2743 159 28 34
3.02484 3.08097 18.0262 216 215 197
3.86859 -3.48661 15.374 147 143 132
4.43807 -1.3382 15.6174 167 161 145
3.42111 0.186773 16.699 105 10 18
3.49698 3.27058 17.8502 221 209 199
1.37816 4.56254 18.5608 143 140 125
3.49698 3.27058 17.8502 221 209 199
3.06309 3.56741 18.1554 171 36 43
2.80519 2.84574 18.2726 159 28 34
2.89406 -1.47163 15.8101 156 146 134
4.40583 -1.2096 15.6481 149 136 120
0.231336 1.3675 18.4156 199 196 191
2.64937 -2.34918 15.8941 155 148 132
2.83125 -2.76675 15.7209 171 168 151
3.72437 -1.59206 15.4883 126 117 102
2.47516 2.72595 18.4342 165 135 133
3.74982 -1.48762 15.4997 134 124 114
3.957 -1.54144 15.506 116 109 95
6.69767 2.02578 17.4511 179 32 40
3.22251 -2.48166 15.6118 167 161 145
4.48008 0.167191 17.0006 146 17 25
3.013 -1.31971 15.8308 111 101 91
6.69767 2.02578 17.4511 179 32 40
2.30908 -2.07735 16.1103 152 143 128
3.74043 -4.41935 16.0137 199 200 194
2.71424 -0.866928 16.2223 183 169 156
2.9019 -4.79327 17.8578 142 138 126
2.96973 -1.12699 15.8871 179 170 155
5.40273 0.0240629 18.2282 131 16 24
4.69106 -0.871745 15.8787 190 160 150
2.9019 -4.79327 17.8578 142 138 126
2.74965 -1.34746 15.9285 126 117 102
1.85595 4.29244 18.5146 141 138 121
3.59942 3.68892 18.1006 181 35 48
2.85994 3.13336 18.276 188 150 143
2.2827 2.96182 18.8834 98 13 18
4.54646 -0.0654042 16.7268 29 2 1
2.92851 2.82496 18.081 213 204 185
3.02484 3.08097 18.0262 216 215 197
3.02255 3.27148 18.1788 168 38 42
3.25889 3.50224 18.132 207 209 188
3.43578 -3.3355 15.7625 147 145 133
3.69226 -2.78501 15.4013 144 137 127
2.76475 2.68728 18.2101 178 183 161
3.45543 -1.63191 15.5588 132 122 110
4.12166 -3.75481 15.0682 104 101 84
4.01865 -1.23486 15.5754 106 98 85
1.57559 4.20694 18.2902 156 150 136
2.91018 -5.24013 17.7988 197 197 187
2.89724 -5.2346 17.7713 197 197 187
1.5897 4.45045 18.3781 162 159 144
4.07002 -3.70612 15.1262 148 144 133
4.3248 -3.38406 15.0025 42 36 24
3.94264 -3.35628 15.2887 146 144 132
3.53736 -0.338318 16.1222 168 152 139
2.59912 3.14525 18.6407 203 187 172
2.35961 -1.89829 16.0886 112 104 93
3.91532 -1.73476 15.3154 170 164 150
3.72437 -1.59206 15.4883 126 117 102
3.71523 -0.936722 15.6506 181 168 154
4.42741 -1.03449 15.7617 171 155 142
2.92744 -1.09667 15.9214 177 166 154
3.48697 -1.13467 15.6022 139 130 115
1.58808 4.45736 18.374 162 159 144
1.21383 4.5729 18.4898 140 136 124
2.36091 -1.89983 16.0912 112 104 93
4.084 -1.49805 15.4718 111 105 93
4.2319 -0.115169 16.5505 100 80 71
3.49779 -0.157862 16.3388 162 146 133
4.19155 -0.174189 16.4996 163 146 135
3.17531 0.0302056 16.6076 79 17 20
3.01911 0.00577755 16.7437 98 46 44
3.66145 -0.00565241 16.4645 162 132 124
3.00449 -0.640033 16.1733 167 153 142
2.72784 -0.657803 16.3325 134 117 109
2.7408 -0.835823 16.2244 120 106 97
3.51756 -0.346274 16.123 173 157 144
2.78714 -2.46501 15.7806 137 131 119
2.78127 -2.57804 15.8885 129 126 111
2.79262 -2.38818 15.8192 124 118 106
2.6976 -2.76 15.8768 163 160 143
2.53163 -2.7348 15.9861 160 157 142
2.92631 -2.58365 15.6668 167 160 144
2.97634 -2.67976 15.7424 126 120 106
2.69939 -1.89408 15.8431 112 102 92
4.36008 -1.88948 15.389 173 167 151
4.03567 -1.68503 15.4547 165 159 145
3.20302 -1.70092 15.5831 179 171 158
3.17612 -1.73874 15.5642 121 113 100
2.30139 -1.84132 16.2413 162 154 143
2.89468 -1.80594 15.7285 133 125 114
2.94542 -1.84512 15.6976 120 112 101
3.98362 -2.00728 15.3534 117 111 99
2.83479 -2.08598 15.7122 164 156 143
3.58882 -2.08472 15.3646 169 163 149
3.08379 -2.12994 15.6472 113 104 92
2.13514 3.79975 18.4617 159 153 137
2.32516 3.70196 18.5263 114 106 93
1.45454 3.90579 18.3477 125 122 105
1.85462 3.87662 18.3524 111 105 89
1.77721 3.87608 18.408 117 111 97
1.82696 3.66627 18.4114 165 162 147
1.93015 3.85207 18.3605 162 157 138
1.16926 3.82434 18.2604 128 125 108
1.98459 3.47502 18.4757 121 114 98
1.42228 3.38282 18.376 158 152 138
2.83657 -0.981928 15.9858 134 122 110
1.7947 4.16354 18.4043 118 112 98
1.33858 4.17798 18.3183 162 159 142
0.801989 4.14475 18.3408 163 160 145
0.98404 4.02577 18.2862 124 121 106
1.69954 3.95636 18.289 110 104 88
5.14932 2.38602 16.9695 173 42 47
2.1403 3.23771 18.6501 113 105 92
3.39353 -0.980476 15.7321 172 162 149
3.13309 -0.921942 15.9006 168 156 144
2.63004 -1.3888 15.9764 174 164 154
3.51756 -0.346274 16.123 173 157 144
3.57423 -0.58194 15.9424 147 133 120
2.7408 -0.835823 16.2244 120 106 97
2.85568 -0.862222 16.1022 132 118 109
3.29852 -1.54421 15.5667 129 119 107
2.89468 -1.80594 15.7285 133 125 114
2.94542 -1.84512 15.6976 120 112 101
1.82687 3.66639 18.4095 165 162 147
1.37374 3.50909 18.3501 158 155 138
1.9923 3.58962 18.4341 124 118 102
1.95191 4.18747 18.3886 155 149 136
1.95291 4.1842 18.3897 155 149 136
1.81051 4.2478 18.4893 153 150 133
1.80146 4.17413 18.4342 118 112 98
3.79467 -2.91581 15.4092 139 135 124
3.18209 0.0331752 16.6252 79 17 20
4.2325 -0.114697 16.5522 100 80 71
3.54933 -3.34688 15.7097 136 134 122
4.02165 -3.02675 15.1196 82 78 67
2.62956 -2.60742 15.9532 166 162 150
2.69951 -2.76501 15.8972 163 160 143
2.97449 -2.67783 15.737 126 120 106
1.76799 4.1983 18.2961 155 152 135
3.86501 -3.63322 15.474 117 113 101
2.54534 -1.04498 16.2615 172 162 152
2.84396 -2.51057 15.7997 123 120 105
3.13482 -2.56331 15.645 126 119 103
3.31255 -2.57749 15.5822 167 163 152
2.9578 -2.42533 15.6644 160 154 142
3.79975 -1.50486 15.4345 113 103 93
2.53324 -2.5015 15.9783 141 135 123
3.1919 -1.58999 15.6559 148 138 126
3.23863 -1.67883 15.5713 145 137 124
2.90622 -1.30104 15.8902 173 163 152
2.57139 -2.4828 15.9935 168 162 150
2.84311 -2.50931 15.7973 123 120 105
4.2122 -2.50131 15.1878 156 148 135
3.09188 -2.3473 15.6336 100 94 80
3.08762 -2.34553 15.6251 100 94 80
2.54545 -2.42005 15.9633 142 136 124
4.00641 -2.8645 15.13 141 137 126
4.25305 -3.52152 14.8723 125 121 109
2.95395 -2.71339 15.7463 164 158 144
1.7791 3.92075 18.3233 158 152 138
1.33129 3.91368 18.2878 165 162 145
3.23096 -3.46861 15.8828 110 108 96
3.44688 -3.35078 15.7271 150 148 136
4.18869 -3.44331 15.0847 127 123 112
2.89218 -0.0111107 16.7953 98 41 40
3.01626 -0.0724059 16.624 106 76 70
2.58558 2.6443 18.4754 195 141 132
2.95941 -0.70384 16.1592 164 150 139
3.51769 -0.416868 16.0883 136 120 107
3.50747 -0.279419 16.189 139 123 110
3.62953 -0.372908 16.0778 176 160 147
1.94718 3.606 18.366 129 123 106
3.16852 3.54479 18.1087 159 45 52
3.28733 3.46323 18.1355 247 216 200
2.87697 3.44306 18.262 165 39 50
2.25778 3.40143 18.51 152 145 131
1.92482 3.8163 18.4342 130 125 106
1.95178 3.89137 18.376 115 109 93
0.837639 3.67081 18.2928 127 124 107
1.09461 3.84772 18.2918 126 123 106
1.95387 3.89616 18.3856 115 109 93
1.92259 3.81066 18.3958 130 125 106
1.99582 3.91659 18.3873 156 150 134
1.0775 3.74933 18.2914 140 137 120
0.735672 3.93533 18.3188 130 127 112
1.33129 3.91368 18.2878 165 162 145
2.87697 3.44306 18.262 165 39 50
6.39408 3.03362 16.1936 134 133 117
2.25778 3.40143 18.51 152 145 131
1.94718 3.606 18.366 129 123 106
1.99356 3.64739 18.4569 160 154 138
3.05522 0.0496847 16.7363 170 102 103
2.88455 -2.78711 15.752 124 121 104
3.31717 -1.91673 15.5429 166 160 148
2.75345 -1.85644 15.8124 150 142 131
2.41785 -1.95075 16.1926 114 106 95
3.74945 -1.83236 15.4785 120 112 99
2.10402 -2.13703 16.2742 164 158 146
4.98704 -2.04011 15.9328 160 157 140
3.40973 -2.06628 15.6185 161 155 143
2.877 -1.72656 15.6593 168 160 149
2.13432 -1.70036 16.3856 137 127 117
3.35641 -1.5754 15.5387 173 163 151
4.74611 -1.64799 15.9029 85 76 61
4.3415 -1.6318 15.5526 123 117 101
4.01977 -1.63125 15.4347 121 115 101
1.90782 -1.87321 16.5053 124 116 105
3.17612 -1.73874 15.5642 116 106 94
2.94853 -1.80164 15.7774 164 157 147
2.98619 -0.327566 16.3107 157 140 132
5.41354 -0.345698 17.9195 224 196 188
3.33885 -0.342472 16.1884 173 159 148
3.47128 -0.414819 16.0733 169 155 144
2.4088 -0.520006 16.6854 163 139 133
2.06902 -0.592204 17.5875 167 121 117
3.46261 -0.541714 16.1341 129 117 105
2.85359 -0.0235932 16.801 161 107 107
2.73244 -0.0662995 16.905 172 108 106
3.85809 -0.0816957 16.554 164 149 137
4.14531 -0.149298 16.4763 127 107 96
2.81278 -0.24278 16.5669 117 100 92
2.37149 -0.307367 17.0233 164 127 121
3.13705 -0.27746 16.37 121 107 96
3.38739 -0.972443 15.5197 169 160 145
3.13175 -0.920257 15.9065 165 155 143
4.19019 -0.906351 15.7225 156 140 127
2.31607 -1.09874 16.4145 111 101 91
2.49572 -1.09596 16.2996 169 159 149
3.14691 -1.06078 15.8125 135 125 113
2.72257 -0.762941 16.1871 112 97 90
4.06944 -0.629984 16.025 152 138 125
2.28185 -0.758359 16.5311 156 142 133
2.9552 -0.744198 16.0913 132 120 108
3.33054 -0.758022 15.8759 179 167 153
2.55895 -0.842966 16.2447 129 116 107
5.42935 -0.260435 18.0106 155 50 48
2.34851 -0.901512 16.3843 159 145 136
3.68888 -0.813374 15.6142 174 162 148
1.97112 -0.960256 16.9486 152 134 127
4.46505 -2.81715 15.1472 133 125 111
3.77432 -3.00258 15.4706 133 129 118
6.09879 -3.07074 17.7909 193 187 174
4.19572 -2.68774 15.1777 86 78 67
3.25221 -2.8051 15.613 126 122 110
6.37713 -3.39147 19.0335 201 200 196
3.88147 -2.81637 15.3688 125 118 108
3.30936 -3.25785 15.4878 144 140 129
3.8105 -3.26088 15.4358 94 90 79
4.00815 -3.26721 15.2736 91 85 75
3.13848 -3.45388 15.8419 84 80 69
3.97472 -3.39944 15.2258 80 79 67
3.87673 -3.09356 15.7362 66 62 53
3.61403 -3.12441 15.6029 109 105 94
3.97223 -2.27553 15.3678 154 148 136
3.03115 -2.32031 15.7629 120 114 102
3.94587 -2.28184 15.5367 101 95 83
1.90675 -2.57123 16.6725 158 154 142
2.2733 -2.48337 16.0768 116 110 98
4.34259 -2.06389 15.548 118 112 96
4.40661 -2.0561 15.4028 164 158 142
3.69036 -2.08115 15.4558 131 123 110
5.21454 -2.13233 15.9614 131 125 109
4.63106 -2.16686 15.6027 128 122 106
4.3541 -2.16069 15.4995 163 157 142
5.13563 -2.21988 15.9774 163 160 143
2.4965 -2.29051 15.9667 102 96 84
2.55044 -2.28432 15.9119 168 162 150
2.44224 -2.30402 15.9783 168 162 150
3.402 -2.57008 15.4 168 164 152
2.91319 -2.64312 15.7792 114 108 96
4.53979 -2.5793 15.3823 126 118 99
4.82435 -2.64571 15.6887 143 141 126
4.06632 -2.60593 15.3149 140 133 123
5.0028 -2.68501 15.8201 119 116 101
3.7284 -2.66577 15.4285 149 142 132
4.52944 -2.63819 15.2907 161 153 134
2.07093 -2.70895 16.4801 135 131 119
4.79675 -2.43898 15.5329 123 120 103
3.51875 -2.4602 15.3997 109 105 93
1.47629 3.75104 18.5161 158 155 140
2.03359 3.86033 18.4713 121 115 101
1.68319 3.67121 18.2898 106 102 90
2.19844 3.68819 18.2866 157 150 134
1.91524 4.06793 18.4197 107 101 87
1.70969 3.88615 18.3582 157 151 137
6.29504 3.68093 18.5908 106 98 87
2.14209 3.35414 18.3094 155 149 135
2.33466 3.51819 18.4627 160 150 138
2.02246 -0.997172 16.7701 163 148 141
2.89801 -1.4211 15.8569 124 114 104
3.34783 -0.47353 16.0908 146 132 121
6.46031 -2.9312 18.3433 197 189 181
2.89801 -1.4211 15.8569 124 114 104
1.34437 4.51997 18.687 127 123 111
1.27032 4.36676 18.5003 138 135 120
1.91455 4.44404 18.7187 121 117 105
1.20245 4.54475 18.8175 166 162 150
1.42113 4.47561 18.4158 155 152 137
9.21365 2.5486 19.3567 164 161 144
7.21625 2.11131 17.1896 172 147 132
8.24793 2.26214 19.3621 104 98 84
8.88069 2.25228 19.3699 147 144 127
9.00582 2.23512 19.362 146 143 126
7.3411 2.48196 16.672 166 163 146
3.95857 0.736526 16.7233 129 0 11
5.15808 0.293886 16.9676 145 10 17
3.97946 0.148082 16.6846 100 9 14
4.24096 0.0908847 16.571 129 15 25
4.1213 0.0692706 16.4815 112 37 41
3.25136 0.918523 16.7522 153 29 39
0.0989856 2.90451 18.5271 101 95 83
6.68032 2.98737 16.0414 131 128 111
2.47847 3.03769 18.5815 206 154 153
0.00509879 2.84192 18.3726 117 111 99
6.83207 2.83859 16.0157 163 160 143
0.223434 2.79703 18.3499 116 108 97
6.13548 3.06047 16.2812 145 131 120
6.73372 2.61204 16.3376 128 122 106
2.23607 2.78687 19.1192 38 0 0
0.452284 2.60181 18.398 90 82 71
2.38738 2.73064 18.836 178 145 136
6.88722 2.57804 16.3594 165 162 145
8.84716 3.19241 19.1536 130 127 110
2.69939 -1.89408 15.8431 109 101 90
3.06573 -1.79754 15.8083 145 138 128
3.2037 -1.70336 15.5836 176 166 154
4.74611 -1.64799 15.9029 85 76 61
3.50968 -1.60612 15.4702 157 147 135
3.35889 -1.57748 15.5471 173 163 151
3.69036 -2.08115 15.4558 131 123 110
4.34259 -2.06389 15.548 118 112 96
2.31607 -1.09874 16.4145 111 101 91
3.64786 -1.01414 15.6624 171 162 147
2.31607 -1.09874 16.4145 111 101 91
3.01284 -1.31815 15.8329 111 101 91
3.3035 -0.896489 15.9087 117 107 95
2.41684 -1.49765 16.1799 161 151 141
6.05927 -1.59244 18.145 218 210 199
2.55015 -2.28525 15.9252 168 162 150
2.71452 -1.36336 15.8659 166 156 146
2.51575 -3.05458 15.8942 157 153 141
3.07847 -2.99395 15.7013 152 148 136
3.76173 -2.85696 15.3687 132 128 117
2.23032 -2.9184 16.2643 165 161 149
4.80522 -2.99697 15.6746 122 116 102
2.61951 -2.46943 15.9694 118 112 100
3.97223 -2.27553 15.3678 154 148 136
2.07093 -2.70895 16.4801 135 131 119
3.29991 -2.28093 15.4717 104 100 88
3.15466 -2.61869 15.6482 168 162 148
1.47629 3.75104 18.5161 158 155 140
2.0333 3.85607 18.4812 121 115 101
3.24637 -3.57486 15.9567 155 151 140
1.17517 4.04608 18.2884 116 113 98
2.14209 3.35414 18.3094 155 149 135
4.1213 0.0692706 16.4815 112 37 41
3.13705 -0.27746 16.37 121 107 96
2.81278 -0.24278 16.5669 117 100 92
0.443317 2.7296 18.4153 127 117 107
2.36937 0.8222 16.4547 103 3 5
2.85595 -0.863911 16.1557 129 116 107
2.95538 -0.743244 16.1001 132 120 108
4.10384 -3.99076 15.2927 191 190 177
3.76806 -4.14568 16.4722 138 135 120
2.58206 -4.61685 17.9719 126 122 110
4.47243 -3.98095 15.4411 157 154 136
3.99542 -3.76319 15.3253 117 113 101
2.1167 3.76098 18.5198 118 111 95
2.55976 -4.78477 17.8048 147 145 133
4.07463 -3.46553 15.2579 82 78 69
2.83447 -4.92075 17.6178 161 157 146
2.84185 -5.21949 17.8851 165 162 153
4.00871 -3.53398 15.0631 130 126 117
1.60719 4.15143 18.4954 133 127 113
4.71712 -3.41229 15.1233 138 130 111
2.78871 -4.13254 16.9666 148 144 133
2.01051 3.68782 18.4458 116 110 94
2.83474 -5.19133 17.8054 165 162 153
3.13848 -3.45388 15.8419 84 80 69
2.62898 -3.4122 16.2404 165 161 150
2.36776 -2.70952 16.1884 117 113 101
2.12968 -2.80515 16.376 115 111 99
4.86489 -2.34574 15.6792 149 146 129
4.94168 -2.36394 15.763 163 160 143
2.39778 -2.48595 16.0626 172 166 154
3.11585 -2.70471 15.639 126 123 108
4.33137 -2.24113 15.4735 166 160 146
3.5795 -2.88431 15.53 152 148 137
2.20158 -2.56578 16.2587 118 114 102
6.11099 -1.60744 18.1691 129 116 104
4.02788 -3.67252 14.9938 156 152 140
3.64317 -1.64883 15.4494 121 111 99
2.55021 -1.24861 16.028 141 131 121
2.66344 -1.31762 16.0269 167 157 147
2.61829 -1.44214 16.0155 114 104 94
3.06291 -2.07922 15.561 173 167 155
4.47232 -2.10026 15.5558 132 126 110
2.3175 -2.32827 16.1545 137 131 119
4.26423 -1.82117 15.4921 128 122 106
2.68037 -1.97528 16.1533 168 160 149
3.3653 -1.91215 15.6745 134 126 113
2.21734 -2.00998 16.1734 120 112 101
3.44496 -2.53599 15.4512 128 124 112
3.82137 -2.41995 15.3125 159 152 142
2.79787 -2.53451 15.8519 174 168 156
2.9903 -2.72536 15.4839 168 165 150
2.24428 -2.89859 16.378 122 118 106
2.28219 -2.84237 16.1982 170 166 154
3.11652 -2.69977 15.6242 126 123 108
2.07596 -2.87591 16.657 159 156 141
2.39723 -2.48282 16.0604 172 166 154
4.94168 -2.36394 15.763 163 160 143
2.79022 -2.41401 15.7251 168 160 149
4.86489 -2.34574 15.6792 149 146 129
3.08762 -2.34553 15.6251 98 92 80
2.14259 -2.48698 16.3499 172 166 154
2.17323 -2.4545 16.3368 129 123 111
3.35559 -2.42239 15.4435 164 160 147
2.1226 -2.588 16.4305 164 160 148
2.20158 -2.56578 16.2587 118 114 102
3.09694 -2.42974 15.5367 172 166 152
3.52198 -2.38514 15.4365 162 156 144
3.27922 -4.78384 17.2034 162 160 148
4.58837 -3.94466 15.3279 162 157 142
4.67639 -3.78359 15.0003 207 199 191
4.11871 -2.83562 15.286 87 79 68
3.43633 -2.90486 15.6291 155 151 140
2.24902 -2.97596 16.3541 123 119 107
2.87482 -2.8641 15.7999 117 113 101
4.53884 -2.72366 15.2833 121 113 94
4.68707 -2.87745 15.3593 157 146 127
4.73987 -2.87697 15.5057 119 113 96
4.25502 0.00519613 16.4363 171 99 100
1.65007 3.31019 18.4616 113 107 91
3.59082 3.25583 17.7961 156 36 46
3.82465 -3.03318 15.4976 119 114 105
0.601319 3.53456 18.218 155 152 135
3.34847 -0.536351 16.1261 130 118 106
2.8517 -0.560036 16.2504 115 101 90
3.99797 -0.0949446 16.4096 149 131 119
3.10388 0.0241186 16.5566 78 24 24
1.53875 3.87848 18.4705 163 159 147
0.450892 3.61789 18.235 130 127 110
2.80873 -1.76354 15.7638 106 98 87
4.97354 -0.111427 16.3737 148 33 39
2.22101 3.83817 18.4388 159 152 136
4.45125 -0.138693 16.7983 71 33 30
4.80646 -2.09461 15.7167 162 156 140
3.3348 -3.49038 15.7821 128 124 113
4.39009 -3.33726 14.9184 85 82 65
3.8706 -3.37825 15.3706 95 91 80
3.79116 -3.33586 15.4169 138 134 123
3.85259 -3.34298 15.3744 146 142 131
3.38252 -3.46743 15.82 130 126 115
2.59353 -1.03095 16.0112 131 121 111
3.02967 -1.07858 15.7614 175 165 153
2.83613 -1.10088 15.9721 147 137 125
2.50105 -1.13178 16.0945 119 109 99
3.86867 -1.0712 15.6653 136 127 112
4.17823 -3.51127 15.1653 68 64 55
3.86282 -3.62574 15.4411 110 106 95
4.21832 -3.62491 14.9419 129 125 113
8.5861 2.27717 19.1972 141 138 121
8.28331 2.14339 19.3525 98 92 76
8.96958 2.73837 18.7817 159 156 139
3.86769 -3.11322 15.5015 118 114 103
3.58999 -3.24424 15.6383 136 132 121
1.60874 4.36137 18.61 160 156 144
2.28174 3.49278 18.4352 126 118 105
2.94726 3.47514 18.2572 164 42 53
2.05098 3.546 18.44 161 155 139
1.06759 3.33968 18.4051 148 145 130
1.81167 3.61652 18.4017 108 100 87
2.51622 3.59518 18.5406 152 144 133
0.593824 3.50827 18.3301 132 129 112
1.76751 3.59144 18.3973 161 154 141
6.92029 3.13396 16.1071 134 131 114
2.08863 3.24032 18.5853 145 137 126
6.27435 3.07946 16.0518 138 135 120
6.29032 3.00544 16.0681 129 126 111
1.15708 3.07437 18.4171 117 112 101
1.64627 3.30716 18.4527 113 107 91
2.29997 3.29644 18.5636 101 91 79
3.59082 3.25583 17.7961 156 36 46
2.08184 3.32437 18.5329 153 143 131
2.02229 4.36639 18.615 129 125 113
1.80586 4.02936 18.354 151 145 131
1.73313 4.01876 18.3282 156 150 136
0.839988 4.5538 18.7252 116 114 101
1.42427 4.30095 18.3352 131 127 115
1.76327 4.4491 18.5683 117 113 101
1.88896 4.02032 18.4762 153 147 133
0.622658 4.54032 18.6619 192 189 180
0.954917 4.58355 18.6197 146 144 132
1.91091 3.73027 18.3897 158 152 136
0.451179 3.61865 18.2351 130 127 110
2.5336 3.75796 18.4405 160 153 137
1.21474 3.74256 18.2902 157 154 137
2.22101 3.83817 18.4388 159 152 136
2.24547 3.73233 18.5196 122 115 99
1.87286 3.70011 18.4052 122 116 100
1.18389 3.64922 18.2591 161 158 141
2.03514 3.96617 18.5711 122 116 102
2.28546 3.93911 18.4696 167 160 144
1.7791 3.92075 18.3233 155 149 135
1.8583 3.76124 18.0595 166 160 146
2.9121 3.09373 18.1646 229 202 186
0.758065 3.84612 18.5657 113 109 97
8.10904 1.80108 20.4485 148 144 133
8.45709 1.67242 20.4292 167 164 155
8.55097 1.71539 20.3938 167 159 146
9.17878 1.79159 20.3813 175 171 160
8.15376 1.75666 20.5258 197 193 184
3.69379 1.01215 16.6606 146 9 20
3.48547 1.0702 16.4246 126 5 14
3.63679 1.11232 17.2212 197 50 60
8.27313 2.33364 19.5696 145 139 125
8.66208 2.23793 19.5066 117 114 97
2.905 -0.0906966 16.5162 129 100 96
3.91495 -0.107873 16.2675 140 122 110
4.10803 -0.0705544 16.4932 141 122 110
3.01568 -0.0732783 16.6111 105 74 71
3.18965 -0.0554959 16.4931 158 135 127
4.5544 0.0324429 16.7346 82 1 2
4.22782 0.0112566 16.5684 133 63 69
4.97354 -0.111427 16.3737 148 33 39
4.26909 0.00213358 16.593 171 99 100
4.45125 -0.138693 16.7983 71 33 30
3.72918 -0.135382 16.3057 165 148 138
3.29099 0.361057 17.0138 168 28 41
3.54126 0.0184261 16.5191 101 68 61
3.25954 0.0652675 16.6143 160 104 105
2.42031 0.147867 17.1457 177 31 42
1.51182 3.04168 18.5234 103 93 83
6.41129 2.98623 16.1842 164 161 146
6.34412 2.98477 16.1474 171 168 153
2.94281 3.00486 18.3405 244 204 192
0.102394 2.84125 18.3388 138 132 120
8.65631 2.65451 18.9339 116 113 96
8.71776 2.72525 19.263 134 131 116
8.96958 2.73837 18.7817 159 156 139
7.13956 2.47271 16.5117 124 121 104
8.86377 2.46923 19.3172 145 142 127
8.96884 2.56349 19.761 107 104 89
8.655 2.5901 19.174 141 138 121
6.75681 2.60192 16.2253 161 156 140
7.02523 2.69861 16.3717 125 122 105
7.78844 2.86857 17.0543 154 151 134
2.80586 2.44665 17.9699 170 50 55
0.133593 2.5185 18.5484 125 121 109
0.450331 2.54771 18.6775 75 62 53
3.1906 -1.54085 15.6588 175 165 153
3.05035 -1.56777 15.7062 139 129 119
2.21166 -1.72981 16.4018 127 117 107
4.72153 -1.4049 15.8501 163 151 135
6.11099 -1.60744 18.1691 129 116 104
4.49361 -1.42179 15.5877 180 172 157
2.04453 -1.63673 16.3346 166 156 146
2.74193 -1.72761 15.8058 139 131 120
2.94337 -1.74164 15.7541 124 118 106
1.97083 -1.85902 16.4892 166 158 147
4.31404 -1.69286 15.5783 119 113 97
3.01897 -1.67125 15.7911 133 125 112
4.77362 -1.61659 15.8811 153 144 127
2.18068 -1.73719 16.277 168 158 148
2.53774 -1.71123 16.0326 136 128 117
3.07726 -1.67582 15.7538 179 171 158
2.57373 -1.49133 16.0431 127 117 107
3.6896 -1.63462 15.4671 170 160 148
3.90968 -1.64338 15.4785 167 158 143
3.64222 -1.6451 15.4204 121 111 99
4.28571 -1.1052 15.6445 188 176 162
3.94445 -1.11829 15.6262 124 115 100
3.43309 -1.17615 15.6521 172 162 150
2.55053 -1.2905 16.1413 167 157 147
3.39103 -1.0858 15.7807 174 165 150
2.75749 -1.05853 15.8627 148 138 126
3.89372 -1.04364 15.6593 174 163 149
3.58252 -1.04334 15.735 177 168 153
3.02967 -1.07858 15.7614 175 165 153
4.13342 -1.03515 15.633 146 137 122
2.50105 -1.13178 16.0945 119 109 99
3.28857 -1.26331 15.689 169 159 147
3.86867 -1.0712 15.6653 136 127 112
2.8838 -1.15813 16.0662 137 129 116
2.61825 -1.4427 16.0135 114 104 94
3.83718 -1.37445 15.4884 130 120 108
2.9476 -1.46106 15.8085 127 117 107
3.03615 -1.2837 15.8186 171 161 151
2.66344 -1.31762 16.0269 167 157 147
2.34776 -1.38184 16.2897 163 153 143
4.16286 -1.70243 15.52 110 104 90
2.16892 -2.22674 16.3103 111 105 93
4.8444 -2.09903 15.6805 140 134 118
4.47232 -2.10026 15.5558 132 126 110
3.92277 -2.1199 15.4181 118 110 97
3.05897 -2.04554 15.6118 107 101 89
2.96091 -2.05975 15.6227 105 99 87
2.36293 -2.27362 16.1825 116 110 98
3.06621 -2.07796 15.5559 173 167 155
3.92538 -2.22311 15.4392 152 146 134
3.38972 -2.24982 15.4425 158 152 140
2.3175 -2.32827 16.1545 137 131 119
3.50936 -2.15179 15.3191 160 154 142
3.40641 -2.20898 15.4386 103 97 85
3.61932 -1.81336 15.4794 110 102 89
3.8917 -1.83803 15.5547 153 147 133
4.26423 -1.82117 15.4921 128 122 106
2.68247 -1.94186 15.9246 168 160 149
2.38599 -1.97041 16.0827 164 156 145
3.8589 -1.84909 15.4122 134 128 114
4.63844 -1.71617 15.6897 133 125 111
4.57198 -1.72314 15.6371 141 134 118
3.87696 -1.75119 15.3683 170 164 150
4.33435 -1.78246 15.5811 109 103 87
2.50733 -2.03483 15.9784 175 167 156
4.41209 -1.92948 15.4996 148 141 125
3.68724 -1.937 15.5214 135 127 114
2.93768 -2.01661 15.5732 161 155 143
3.3653 -1.91215 15.6745 134 126 113
2.8707 -1.93115 15.7054 134 126 115
2.6431 -1.94905 15.8212 119 111 100
4.48559 -1.91199 15.6667 147 140 124
3.18531 -1.94679 15.5967 171 164 153
2.03706 2.81243 18.9976 181 136 126
3.09223 0.0270311 15.8965 78 24 24
3.50711 -0.277836 16.1776 130 116 105
3.38323 -0.438695 16.1043 178 164 153
3.15001 -0.449082 16.1533 171 157 146
3.20335 -0.462965 16.1295 125 111 100
2.8517 -0.560036 16.2504 115 101 90
3.34988 -0.535336 16.1302 130 118 106
2.48377 -0.599765 16.6609 120 106 97
3.33456 -0.693656 15.9373 126 114 102
3.34029 -4.42148 16.6606 165 162 148
3.54438 -0.264972 16.1723 177 162 150
3.59639 -1.73157 15.5521 147 137 125
4.14383 -1.90369 15.4651 161 155 141
3.18396 -0.252634 16.3416 165 148 138
4.80646 -2.09461 15.7167 162 156 140
4.2548 -2.71137 15.1061 97 89 76
2.24318 -1.06173 16.7509 130 117 108
2.77151 -0.804468 16.2179 157 144 135
2.14469 -0.834615 16.6565 161 147 138
3.79717 -0.697553 15.8386 143 129 116
4.0566 -0.799376 15.8311 152 138 125
2.22793 -0.925442 16.5817 129 115 106
3.40274 -0.858554 16.026 179 167 153
1.9093 -0.96854 17.0744 147 137 128
2.54696 -0.978941 16.1961 136 123 114
3.16493 -0.620836 16.1086 127 115 103
3.33913 -0.596 16.0931 171 159 147
3.64803 -0.554728 16.0123 146 132 119
2.41603 -0.722423 16.6366 135 121 112
6.38436 3.0953 16.1749 140 137 122
1.82312 4.25501 18.4842 152 147 134
4.34221 -3.93763 15.0347 171 167 155
6.5383 3.07253 16.1429 165 162 147
4.22715 -2.25508 15.4537 73 67 53
6.38436 3.0953 16.1749 140 137 122
3.70383 -1.02189 15.741 148 139 124
4.44625 -1.74332 15.6274 146 139 123
3.43787 -1.09343 15.6343 136 127 112
6.89527 2.64674 16.2909 158 155 138
3.70383 -1.02189 15.741 148 139 124
2.96525 -2.81891 15.7334 119 115 103
2.48807 3.5109 18.3763 159 146 130
7.98844 1.80747 19.6204 139 132 118
3.86525 4.60536 18.3181 200 195 189
3.16863 0.18784 16.695 130 16 26
3.30808 3.34088 18.0412 213 196 180
3.00755 -1.98855 15.5411 144 136 123
3.02165 -1.76833 15.7037 150 142 128
4.55775 -0.92205 15.8721 205 181 169
2.97248 -0.817579 16.0149 177 163 150
2.70724 -2.42064 15.8497 172 166 150
4.0671 -1.9101 15.4187 67 61 47
3.79206 -1.21946 15.6053 96 87 72
2.70724 -2.42064 15.8497 172 166 150
3.59888 -2.45388 15.3984 160 154 138
2.91107 -2.79391 15.741 138 132 118
3.77478 0.0647133 16.5926 156 116 112
3.23777 -1.07967 15.7835 169 160 145
6.46294 3.07065 16.0672 156 153 138
1.69733 4.24155 18.3374 99 93 81
2.68239 -1.05163 16.0572 184 175 160
2.78613 -1.52064 15.8462 186 174 160
2.22754 -0.882162 16.8021 182 168 155
3.41673 -0.580886 15.9909 177 163 150
3.63755 -2.88048 15.4804 129 123 111
2.25501 -1.886 16.2305 137 128 113
4.80484 -2.72611 15.7239 109 107 95
2.98077 -1.35666 15.8848 177 168 153
2.72186 -1.47981 15.8987 145 136 121
3.41673 -0.580886 15.9909 177 163 150
1.84367 3.127 18.5761 133 123 111
1.05483 2.96152 18.5892 68 58 48
0.21661 2.95672 18.3167 117 110 94
3.45187 3.46416 17.9519 227 195 175
1.29608 3.97527 18.2789 144 141 126
2.62606 -2.10722 15.8362 175 166 151
2.31919 -2.61734 16.1984 179 173 157
2.60255 -2.65229 15.9497 139 133 117
0.591028 3.78101 18.2345 144 141 126
3.6205 -1.76905 15.4241 163 156 140
1.64146 4.05028 18.3332 138 132 119
2.42451 -1.8837 16.0393 175 166 151
2.64107 -2.73817 15.8744 137 131 115
0.541693 2.66958 18.5167 93 83 71
6.50783 2.93437 15.9659 166 163 148
1.98772 3.61405 18.5393 98 91 78
1.09227 3.04555 18.5012 88 80 69
8.52573 2.79775 19.1772 65 61 49
3.75547 0.0792963 16.5117 158 115 112
2.85936 -1.05983 15.9854 186 174 160
4.29848 -0.999175 15.7071 169 156 142
0.0799081 1.94659 18.9452 171 165 155
8.45139 2.73041 19.0426 109 105 93
3.84594 0.867647 16.6897 135 21 23
2.73273 -0.662166 16.3529 132 118 105
3.50674 -3.29534 15.6999 130 127 112
2.4987 -2.2937 15.9709 121 114 98
2.79106 3.22242 18.3699 229 201 189
2.96975 -2.82053 15.7403 124 118 104
3.92379 -3.48972 15.3599 139 136 121
3.43017 -3.39168 15.7419 119 115 103
2.89948 -1.98304 15.7188 130 121 106
2.5503 -2.2843 15.9136 176 169 153
0.441584 3.66889 18.2467 154 151 134
2.57689 -0.6788 16.4932 175 161 148
2.94421 -1.75191 15.8477 129 119 107
2.85802 -1.26704 15.9209 182 173 158
3.31458 3.23318 18.0534 213 170 163
3.35889 0.776237 16.7916 146 3 13
1.08157 0.567953 16.3362 165 21 30
3.96346 -0.0984597 16.5063 159 141 129
2.60262 3.02977 18.7023 203 171 156
0.63205 2.74049 18.4416 99 88 76
3.31458 3.23318 18.0534 213 170 163
6.21977 2.87578 16.1535 159 149 137
1.0387 3.5913 18.2772 100 97 82
1.30847 3.64074 18.2959 97 94 79
0.29518 3.17235 18.2284 107 101 85
2.74512 -0.0175058 16.8765 141 36 42
1.32155 -0.734386 19.1876 222 194 185
1.08231 0.505576 16.3235 165 21 30
3.59384 0.937062 16.7058 136 3 14
2.00338 3.81626 18.3956 141 135 121
4.00058 -1.57685 15.43 158 152 138
3.84553 -1.33687 15.4887 166 157 142
2.01055 -1.71998 16.4763 186 177 162
3.32542 -1.51385 15.6205 175 166 151
2.71372 -2.3717 15.9298 179 172 156
2.34928 -2.30176 16.1513 183 176 160
