# 3D point list with one line of data per point:
#   POINT3D_ID, X, Y, Z, R, G, B, ERROR, TRACK[] as (IMAGE_ID, POINT2D_IDX)
# Number of points: 413, mean track length: 3.6223091976516635
862 -4.5650325342734739 0.054179545137198269 5.6448082512087145 255 255 222 0.32790367288481653 4 260 5 285 6 214
864 0.54337695942591435 0.55100033461108455 0.37772022051944126 94 121 99 0.85824575245223045 1 393 3 331 46 511 6 253 7 182
865 -4.5804292396113206 0.094756020272466823 6.0591156318257715 221 224 221 0.50675935645054426 4 276 5 303 6 240
866 -4.5804292396113206 0.094756020272466823 6.0591156318257715 221 224 221 0.50675935645054426 4 277 5 304 6 241
867 -4.6137874413040549 0.1230499112095704 6.1249375013796392 241 243 239 0.46287309089088358 4 591 5 309 6 254
868 -4.7277730596553145 0.1948151816538094 5.9410215220239939 166 168 157 0.65648484666316154 4 288 5 315 6 260
869 1.5532471344862273 0.65395651591901882 0.71882485782712446 57 84 111 1.1781842210563629 4 629 5 367 6 327
870 0.52653929292009216 0.83298371998018794 0.50330827510991427 39 68 48 1.9054493909061876 4 631 5 368 6 582
871 -1.0632544831616 1.1537975211580127 -0.16033985658347519 2 3 2 1.3537947758212372 4 637 5 373 6 314
872 -1.0632544831616 1.1537975211580127 -0.16033985658347519 2 3 2 1.3537947758212372 4 636 5 374 6 315
873 0.46355686912292188 1.3074583506104951 0.52375618833037907 66 73 72 2.0484315080570812 4 662 5 413 7 291
874 0.34689603554389881 1.4237968155567122 0.77777652151261867 0 5 2 1.0550899265328324 4 377 5 421 6 609
875 1.6457152994656863 1.2808725210308389 1.134997891053285 67 77 89 0.14262505986892068 4 391 5 433
876 1.6599256630058226 1.5811916704090536 0.38231626532301982 0 0 0 0.64265675589017657 1 499 4 400
877 -7.2265897648334771 -4.4380313465282448 9.0111177647590353 21 16 0 1.2901227454550217 2 39 5 449 7 317
878 -7.2656772907260612 -3.8631843262864942 9.1899523300799881 17 11 0 0.67947042489452203 2 609 5 461
879 -5.0010595643637528 -0.72061108074826341 -0.071178382133236642 142 145 138 1.7401919140003423 4 428 7 511 8 421 10 604 11 424 10 334
880 -7.3863608190114176 -3.0551752009583195 9.5245011905522521 30 22 1 2.5426823004744747 1 880 5 484 8 434
881 -7.4376435858303376 -3.0065198373538928 9.4569011458220018 70 65 43 0.79167289993255496 1 569 3 504 5 486
882 -7.3349128246917452 -2.6820501617184207 9.5463225206289586 37 29 6 0.5304213642097807 1 580 2 655 5 495
883 -4.8443139327453153 -0.16169755016635393 5.5675452542202519 85 82 73 0.94779949079054404 4 783 5 571 6 695 9 627 9 781 10 615
884 -4.4088939581394504 -0.094108774073649537 5.5345469127951654 61 64 57 2.7677631855303808 4 561 5 579 6 704 9 462
885 -4.717437863813327 -0.13824852107455862 5.927728464162314 98 100 96 0.30549374812888852 4 563 5 580 6 496 9 464 10 522
886 -4.5569808125492575 -0.12995168940724422 6.0601853227535214 71 78 76 0.87174381755545682 4 566 5 587 6 503 9 645
887 -4.580485840076884 -0.11840450449730455 6.0470119453668243 254 255 253 0.78321379723773232 4 238 5 592 9 181
888 0.48816897213048493 0.50400053810791712 0.34053183536450604 0 0 0 1.605406401342492 1 776 3 829 5 595 6 203 6 732 4 233
889 -4.7183967746075695 0.0016528549599377337 5.6948233545733267 164 166 161 0.64924415091671717 4 248 5 598 6 511 9 198 10 390
890 0.52560113374558803 0.55385825469522876 0.35996949736396799 86 116 90 0.39815588010667469 3 642 5 623 6 250 7 438 8 113
891 -4.7317027467031698 0.16560886089418619 5.7425838446403015 86 86 78 1.0318488439757356 4 281 5 629 6 243 9 487 10 418
892 -4.615573957497876 0.17304815990835296 5.7601360962811539 137 140 131 0.27939152944754686 4 590 5 631
893 -4.4450500393544514 0.19352786833403582 5.7845039175582942 191 192 180 2.0123350579732664 4 594 5 641 6 546 10 432
895 -3.9507081395615966 1.5048646487484627 -0.20836338810120053 13 0 0 0.94271210674308392 4 634 6 573
896 1.2075718996391858 0.73452707250120819 0.85566354057994587 231 236 230 0.77316071882981285 5 675 6 779
897 -1.029091132854028 1.2046338036546616 -0.14669968540207037 111 102 107 1.6320041482415026 4 976 5 678
898 -0.81763479200181544 1.4838800390377564 -0.15092906437955522 0 1 0 2.1153027695793658 5 700 8 378 7 267 9 530
899 -7.3051744860117349 -4.0807642498246794 9.123670543600614 92 89 71 0.93471360578953822 47 961 5 731 6 637 7 509
900 -5.5692690113924348 -0.9821659839797231 1.2257523674304278 25 10 3 2.8339125133344689 4 716 6 419 9 380 7 515 8 426
902 -4.5579960935497947 -0.22555332903206579 6.1659881680295774 46 48 47 0.56909259390002342 4 786 5 806 6 701 9 786 4 934 10 623
903 -4.7444913646488081 -0.1518761472930156 6.0101013907684662 249 255 245 0.3255493010071599 4 789 5 809 6 707 9 639
904 -4.7924896754143971 -0.13483231148788036 5.9416085657008129 252 253 244 0.74894027792801421 4 562 5 810 6 705 9 634 10 626
906 -4.7476628237054763 -0.014565738346494947 5.8236416910092856 254 255 255 0.40229475757908162 4 806 5 821 6 876 9 795 10 630
907 -4.7476628237054763 -0.014565738346494947 5.8236416910092856 254 255 255 0.40229475757908162 4 807 5 822 6 877 9 796 10 631
908 -4.7275749869281158 0.028297270093146039 5.6667639599464925 4 0 0 0.67696582137065031 4 811 5 828 6 728 9 799 10 634
909 -0.88041573076733748 0.73772503657861288 -0.33056486308537908 38 39 41 1.7458981955176252 5 835 6 508 7 407 8 319
910 -4.729963778203027 0.015665660048587569 5.9934388382207393 103 104 96 0.69055839220146065 4 813 5 836 9 805 10 640
911 -4.647049935593965 0.12901378969760557 5.7490615589761056 243 238 218 0.60462223016377548 4 822 5 843 6 743
912 -4.647049935593965 0.12901378969760557 5.7490615589761056 243 238 218 0.60462223016377548 4 823 5 844 6 744
913 -4.7445912260545882 0.10833303654651075 5.9646091645502537 254 255 251 0.88006665086726132 4 824 5 845 6 890 5 1015 9 806 10 648
914 -4.7408530592437197 0.10875793765163026 5.9623655425014013 254 255 251 1.0725109177115231 4 825 5 846 9 807 10 649
916 1.5045471253616254 0.69851689025120278 0.75514859158179914 10 36 69 0.79168140327230951 4 971 5 878 6 587
918 2.0540013149788305 0.80870559238385786 1.0682458163288011 214 220 218 0.98241105281397978 4 980 5 888
919 -7.4351022894126171 -4.0007057963938024 9.1457216775854171 103 96 78 1.4795731813707516 3 879 5 914 6 814
920 -0.47269413176819908 -1.5164355349332512 7.5822219165456426 59 51 30 0.038926592177190758 1 1069 5 932
921 -4.7374250081813223 -0.078612358527329909 5.8816430548308452 70 71 65 0.609392003366098 4 938 5 997 6 871 9 895 10 709
922 -4.7300724339601814 -0.037046119997964061 5.925538478866839 255 253 254 0.3925995334003749 4 804 5 1000 6 874 10 633
923 -4.6221944093414926 -0.052843955717792608 6.0029352776123757 43 45 40 0.69349676400663796 4 941 5 1001 6 878 9 800 10 635
924 -4.7290972143135601 -0.0048681459509430239 5.8689385979867374 37 39 28 0.78279941264261699 4 945 5 1004 6 880 9 900 10 720
925 -4.7138380323303384 0.067325688885421842 5.9839548703905647 32 29 20 0.71921724153474853 4 1034 5 1013 6 1023 9 906 10 791
926 -4.6420258077840542 0.08136362530839826 6.056016556928574 55 55 47 1.6292172235247544 4 950 5 1016 6 892 9 908 10 725
927 -0.93615872177853254 0.82827370964711478 -0.27502861630132935 0 1 3 1.4817030988774573 5 1023 6 757
928 0.67434712182874179 0.66527515586833119 0.45066272632957249 2 6 3 1.2877404912824435 4 960 5 1033 6 919 8 461 44 1175 9 513 10 220 11 204
929 1.6006055085047026 0.63147968493396678 0.6878511669962778 13 31 66 0.32857776183830678 4 1045 5 1053
930 1.8709294230052895 0.62569000746703773 0.74087830985830416 20 44 80 1.3379591829531901 3 956 5 1057 6 930
931 2.1804773515624332 1.0026172983426624 1.0162369395092805 213 218 212 1.2187453249053142 4 1059 5 1064 6 1055
932 2.0058520884621474 1.1982665440334916 1.1519942012855588 48 66 90 1.4465997996570095 4 982 8 808
933 -5.7363194299684261 -0.99170302936538657 1.2862743337242943 23 11 5 0.40191939631863882 3 985 5 1083
934 1.7735236716253204 0.35053358038952293 0.62894856368464236 137 105 81 0.69967660064712256 4 1099 5 1132 6 1104 7 810
935 -4.5168532032345743 -0.11144217899226304 6.1595699233839261 23 24 16 1.2954714036536927 4 1024 5 1138 6 1011 9 899 10 719
936 -4.5580819102133692 -0.069037221537214186 6.0783301977233268 48 49 44 0.7238473519145624 4 1026 5 1142 6 1014
937 -4.6864626517793511 0.090108881365516702 5.6961621008804171 31 19 7 0.59728205907045706 4 1033 5 1151 6 1021 9 903 10 789
938 -1.0054990281541198 1.0043981958901005 -0.19924245387919301 4 4 6 1.799886107398627 4 1114 5 1169 6 920
939 1.3086892707268456 0.7929662068416693 0.85159424786109783 84 81 72 1.5617628913450281 47 1254 5 1175 6 1046 8 681
940 0.4851740954567228 1.2927291928772719 0.47286106870599909 73 79 79 1.1665161654529581 4 1057 5 1180 6 1121 7 827 8 684 9 1040 10 877 11 665 10 801
942 -7.3696168507898374 -2.9852874592590752 9.5595266732561086 35 28 10 1.4180285573804134 3 1038 5 1201 9 1057
943 -7.6139821884506222 -2.4929215056712835 9.612010898192942 87 84 65 1.9238336833973808 3 1040 5 1202 9 873
944 1.6683995254592476 0.14982311341088841 0.58884636480226527 92 57 41 1.9285513739196785 4 1086 5 1219
945 1.9858829507902818 0.16063994357180722 0.74674944740004046 43 29 26 1.0698436438276979 4 1089 5 1222 7 875
946 -4.6194530255556057 0.11468690168667746 6.2136138626064863 255 255 253 0.88406434397048372 4 1038 5 1237 6 1032
947 2.0441958074816871 0.75216534824712855 1.0630312477775643 214 216 215 1.7342320312544226 4 1052 5 1252 6 1116
948 0.47770132717908981 1.286557602244967 0.50690766970704115 0 1 0 1.8953137995136844 4 1055 5 1257 6 1120 7 917 8 744 9 1039 10 878 11 731
949 0.46318300514816363 1.4720271812046759 0.55070470304210872 0 2 2 1.2655206331570568 4 1061 5 1259 6 1194 7 961
950 1.4184614638582351 1.2211600081364447 1.045685557582984 9 28 58 1.5827871542393801 4 1121 5 1260 6 1124 7 764
951 1.4070054720951701 1.2270259694919383 1.0165347606808399 220 224 225 1.2326719019055359 4 1060 5 1261 6 1123
952 1.9785563652250704 1.2210109635406179 1.2469931106149381 20 41 69 0.81311235988776653 4 983 5 1265 6 1200
957 1.6573083218059002 -0.16623759040132766 0.51946475293878003 111 50 45 1.7078996083175551 4 1136 5 1289 6 1139
958 -4.778331700219919 -0.08419814076693298 5.7180655141381305 24 25 19 0.54566754325783162 4 1165 5 1322 6 1155 9 1068 10 944
959 -0.89838167888693521 0.72409647916439446 -0.30901968894951221 2 1 1 1.7522310864999959 5 1324 6 1157 8 662 9 952 10 774 11 531
960 -4.6804377128741166 0.048272633573382823 5.8586646122280408 33 21 7 0.74105259726010853 4 1171 5 1328 6 1161 9 1073 10 915
961 -4.6328187423922786 0.18853130154213948 6.0784997811397092 97 96 91 1.904865281869077 4 1173 5 1333
962 -0.91928740751269422 0.93766825820249255 -0.27511505662865826 2 2 2 1.6102866731281484 5 1336 6 1173 7 889 8 672
963 -1.0752782363749138 1.0776020726538229 -0.19840611878258732 11 11 13 1.6186835159441337 4 1236 5 1340 6 1182
965 0.34466007001881832 1.3315585072237519 0.84456102178982151 214 223 218 1.0265678266176044 5 1347 6 1192
966 1.8254022621654198 -0.15808084171542156 0.49450962595935427 116 15 23 1.2618698148000063 4 1208 44 1488 42 710
967 1.8256036520467125 -0.15769509920722563 0.49411178975663678 116 15 23 1.3524364962340836 4 1209 44 1489 42 709 41 719
970 -1.0914824422660008 1.017019535424341 -0.25393198376100479 3 3 3 0.60534616456592949 5 1386 6 1178
971 1.5793398669359664 0.87412643463185535 0.81022398916801674 72 89 115 1.7096328125933742 4 1291 5 1398 6 1189
972 1.2940510317234104 1.0355197455119192 0.84608510815636417 213 219 215 1.7889592427455778 4 1243 5 1400 6 1191
975 1.6182501162072309 -0.024437239965613086 0.58160050155739607 0 1 0 1.6909173343123289 4 1261 5 1418 6 1263
976 1.231362318978001 0.74797905549474808 0.86263141041078262 89 86 79 1.0749925138520986 4 1287 5 1447 6 1287 8 791
977 1.3323961340299935 0.98848697111604678 0.86041912284701016 84 86 83 1.4381969967698736 4 1293 5 1452 6 1292
978 1.6369052866728113 1.2531502573323055 1.1302177868901178 0 4 33 0.78783136148235322 4 1351 5 1458 6 1299
981 -7.7615437987916343 -2.0273886782020867 9.6967775253189732 139 139 129 1.8200026805207237 2 1679 5 1476 46 1757
982 2.0430593073146501 0.19246770498289287 0.89331078857041279 92 51 23 1.3997438747971953 4 1324 5 1480 6 1319 8 906 9 1163 10 996
983 -4.8093133806743396 -0.03840434605985131 5.5083355681305965 182 187 180 1.7394550374971853 46 1764 5 1485 6 1320 9 1164 10 998
984 -4.6956576603838185 -0.018461785481012457 6.1983084507723945 27 28 22 0.74433171280015631 4 1328 5 1488 6 1322 9 1140
985 2.1943396151234222 0.71805174637690083 1.2391792311542431 208 212 211 1.9603415170447416 5 1501 6 1333 11 881
986 1.2881163830330289 1.0432417277788419 0.85103313028114513 214 219 215 2.1979427121119972 4 1347 5 1502 6 1334
987 1.7441368832384099 0.28965315493011284 0.53918509956604577 0 0 0 0.028501707539314955 2 1717 3 1346
988 0.58637554840871553 1.4920821976330645 0.62731316351478261 83 86 79 1.5800221181769156 4 1381 5 1525 6 1364
989 -5.7884353928994461 -0.91257330671826697 1.3438625019340587 24 9 2 1.9380889437769055 4 1384 5 1529 6 1370 8 919 9 1174
990 -5.7884353928994461 -0.91257330671826697 1.3438625019340587 24 9 2 1.9380889437769055 4 1385 5 1530 6 1371 8 920 9 1175
991 2.0335831529289119 -0.0047305926401151931 0.75371247597929636 130 36 34 0.88641347070149146 4 1387 5 1533 6 1377 8 936
992 2.0336670920350799 -0.0046875277899726129 0.75370313887114426 130 36 34 1.1170809757868465 4 1388 5 1534 8 937
993 -0.51300122663329495 -1.280125799743733 7.7807882479929127 113 114 108 2.5639064122708435 1 1586 5 1537
994 1.9145034933615763 0.58886368927852473 0.7740982046161371 104 71 4 1.2432350972044433 4 1400 5 1549 6 1406 7 1113 8 948
995 -1.0229828630352171 1.4742555601835006 -0.16367962641346281 202 204 203 1.3065772050944942 4 1415 5 1574
996 1.488320861675154 1.5141701176670346 0.75804299704063283 182 184 183 2.3993520268341602 5 1593 6 1424 7 1148
998 2.143235722573106 0.91956031058092824 1.2618026095538137 89 88 83 2.2349395399888405 4 1441 5 1611 10 1052
999 1.524502088254081 1.3541056868097519 0.95216574109869945 17 9 7 2.0770662206021626 4 1446 5 1612 6 1443 7 1165
1000 2.0784972896498179 1.2269202883010375 1.3111415538684603 204 208 207 1.1264339672075889 5 1615 6 1446 7 1168
1001 1.8300782792328361 1.6604907098662052 0.5635736181482276 119 120 115 0.89627124895912469 4 1448 6 1447
1003 1.7382591513574215 -0.24076024371292334 0.4762555894140259 89 13 12 1.4105144026765093 45 1805 3 1087 2 1549 47 1408 46 1566 5 1279 4 1200 44 1577 6 1208 43 1271 42 799 41 996 40 606
1004 -4.7701397933012606 -0.66569538203871392 -0.12166316217484618 155 156 148 2.2257623199648644 5 37 6 416 9 34
1005 -4.8126573820292009 -0.098963718665190326 5.9505506499212171 0 0 0 0.8887368710937269 45 1040 46 933
1006 -4.8010263371063031 -0.12289147676061471 5.8260821652558246 203 207 194 0.55897644604204755 4 559 5 578 6 493 9 633 10 517
1007 1.9587025273838961 0.59040928768006673 0.7936450361977444 126 93 39 0.77044901387941556 4 627 5 669
1008 -4.7189197360672575 0.134729967192983 6.0191359932239878 80 82 79 0.79462965243894179 4 829 5 851 6 895 9 812 10 731
1009 -0.95568683720496694 1.1093379108677022 -0.20479720819406239 114 103 109 2.0919486453828124 4 1237 5 1341 6 1183
1010 2.2625100522595334 0.84513377135513601 1.2028811543522102 0 0 0 0.25363838853479204 5 1346 6 1250
1011 -5.8092976137918031 -0.96062631204086979 1.2614124016080213 15 6 1 0.59706285071984966 4 1258 6 1212
1012 -6.5988570871726777 -2.1152725803445804 9.1168144823272446 87 85 72 1.5526082798852656 3 1285 4 1266 5 1368
1013 1.8036539718490712 0.097353447361983647 0.5830579678449348 1 7 29 1.0671306318120066 5 1371 6 1264 7 941
1014 0.4630783928009099 0.49505684637909297 0.32014813907498646 0 0 0 1.7996539141323209 3 1296 5 1484
1015 2.2887048310797597 1.4478638698618538 1.1477117753458923 78 78 76 1.5599106265665528 4 1434 5 1602 6 1431
1018 -4.4687403652422919 0.10887336427635101 4.7192600163319929 117 120 113 0.7837302367610528 5 265 7 143
1019 -4.6736596224284952 -0.11721961427195768 6.2189235897478499 213 215 210 1.2073654775698874 4 569 6 192 10 391 9 191
1023 -4.6915432087297138 0.073799825070818947 5.6624057659951577 17 9 0 0.87960667803572135 4 262 6 217 9 225
1025 -0.96430699309538259 1.5349159276567383 -0.092639158391974355 0 0 0 1.0898145246263367 4 365 5 403 6 347
1026 -4.6750634162565206 0.042100272889298462 4.9293851365563874 245 244 243 2.1624342806069716 5 252 7 398 10 370
1029 -5.1416608855111905 0.059488450547162584 5.4329697525222533 105 105 97 0.63023749999656675 5 597 7 404
1032 0.5264019243486987 1.0854272812862318 0.4978902771978439 94 124 100 1.538315142016154 46 573 47 577 7 268
1033 0.310429577870312 1.4056951010189078 0.83705744505135915 28 34 32 1.9943883138207379 6 608 8 391 9 537 10 460 11 494
1035 -1.0226469271942118 0.57048288028908467 -0.22319775891671167 0 0 0 1.4477672217443383 4 927 5 796
1038 -4.6824320023418311 -0.059236891409090588 5.7788158936885932 249 253 248 0.16873229393365935 4 796 6 713
1039 -4.6824320023418142 -0.059236891409089464 5.7788158936885763 249 253 248 0.16873229393368527 4 797 6 714
1040 0.48642043839050003 0.4851986134262154 0.33779966877522766 0 1 0 2.0096234197028635 4 787 6 716 7 408 6 510 8 106 9 451 10 87
1041 -5.1508917773653327 0.16216619471897092 5.4369687993254727 98 100 93 0.93468046745883582 5 837 7 565
1043 -5.7773900585393143 -1.0650694004301275 1.5467864096876083 13 0 0 2.4589727540679482 2 1266 6 822 8 520
1044 2.0488803667727247 -0.22003289077170957 0.67570306180342554 159 74 69 2.1089463438711005 5 738 6 823 7 704
1045 -4.4938909100779947 0.0017720613356107503 4.7777467827075428 16 7 2 0.10006082020934473 5 990 6 859
1046 -5.087466648564865 -0.052473658859906791 5.3189090073164307 122 118 108 0.62433822797953764 5 805 7 647
1047 -4.6716298583579903 0.05717903748987864 4.8764719263107921 2 4 1 1.2105595820534334 5 811 7 721
1048 -4.7292569496393639 -0.036852307246947311 5.9247642897627024 254 255 254 0.35790390325195465 4 805 5 999 6 875 9 797 10 632
1050 -1.1287046045353164 -0.42743618082282059 6.9810173330698397 0 0 0 1.891300648224544 3 818 5 1007
1051 1.8702498539110477 0.62579233666131384 0.74193425969495264 14 35 71 1.2569971599232102 3 957 6 931 9 698
1053 1.6637990897446553 1.0170867845463885 1.06706542154437 0 3 45 0.79293003823357155 5 1060 6 945
1054 -0.84186077807043758 0.64064736323753568 -0.29722763275828817 1 0 0 1.4173744786931932 5 1130 6 997 8 544 9 622 10 503 11 325
1055 -0.84186077807043758 0.64064736323753568 -0.29722763275828817 1 0 0 1.4173744786931932 5 1131 6 998 8 545 9 621 10 502 11 324
1056 -5.1766524512524761 0.042643670868540047 5.491170564282787 101 101 93 0.9265010731172334 5 1139 7 723
1057 -4.7292924833787291 0.17219249622873806 4.9917103497133501 98 98 90 0.91668705848165211 5 1009 7 728 11 708
1058 -4.5832573884162713 0.12035380030428966 6.1807442256394367 255 255 255 1.5151055516661178 4 1037 6 1031 9 966 10 794
1059 1.3211065077270043 0.79444481090533803 0.88643283828501029 90 89 84 1.5059444013869943 5 1176 6 1047 7 751
1060 0.40900622994592817 1.9491622681427081 -1.1317064372727585 167 169 166 0.45462365041092356 5 1183 6 1063
1062 1.7677409917196081 -0.20622830961843122 0.47815539963193371 110 10 13 1.5135069968879913 5 1194 6 1074 7 780
1063 1.7664209935269823 -0.20648333688663231 0.47955085271255865 110 10 13 1.4782170313847793 5 1193 6 1075 7 781 41 715
1064 1.6947590790920612 -0.17892690425239374 0.49360813344580873 103 8 12 1.7934982164830986 5 1199 6 1079 7 707
1066 -4.9862140118162674 0.12241505593120387 5.2962004963362981 25 18 10 1.5623557031230206 5 1148 6 1100 11 772
1068 1.2449270883847183 1.0229132691630687 0.85096787858155687 112 113 107 1.8596660955107172 4 1190 5 1177 6 1119 7 916 8 635
1069 -5.8344814202022057 -4.4922655624396333 10.110084358026116 83 77 65 0.17038156672853735 3 1084 6 1131
1071 1.7976568950342151 0.01671576515078433 0.52803958288966313 114 50 27 2.3597775779427446 5 1293 6 1141
1073 1.6349399422802218 0.49928711982337276 0.75122251003162899 3 6 19 1.0654108640180542 4 1174 6 1179 7 896
1074 -5.0163570113211113 -0.6989339016229773 0.17151768747946214 16 6 4 1.0619743473718741 5 1412 6 1205
1075 -5.0163570113210874 -0.69893390162297364 0.17151768747945689 16 6 4 1.0619743473718559 5 1413 6 1206
1076 -5.4148970062953437 -0.89412644207615233 1.1445372638172235 13 4 0 1.3737845003718068 5 1361 6 1211
1078 -0.82655743955152172 0.72590484904449348 -0.27222488640177722 95 84 88 2.0462748111197078 6 1224 7 877 8 723
1079 -0.82655743955152172 0.72590484904449348 -0.27222488640177722 95 84 88 2.0462748111197078 6 1225 7 878 8 724
1080 1.2347131101345599 0.94044429408936503 0.82105679602180237 129 130 122 1.4465762310389307 5 1397 6 1243 7 912
1081 1.9884739339633757 0.73667834073782246 1.050585925506035 0 4 31 1.1088198219331975 4 1185 6 1245
1082 1.9715492728855921 1.2811444536213332 1.3047047691481843 207 211 210 0.30741481046126207 5 1349 6 1255
1083 1.688234669756161 1.7729483026193174 -0.49048397943932831 177 179 176 0.12436241080358282 5 1409 7 1019
1085 2.1455055709090334 0.68743295695730822 1.096304565762571 149 149 142 0.38681332572491672 4 1240 5 1395 6 1290
1086 1.7114288563404803 0.88160225517692037 0.78133909655887424 56 76 104 0.027422420054753861 5 1399 7 915
1088 0.50852719247006017 1.4447057760400424 0.62301835006906237 209 218 215 1.5044584662152489 6 1295 9 1043
1089 1.6442192642819631 1.4523603373046423 0.9627241196968912 57 57 57 2.1806355182847148 4 1247 7 1011
1092 1.8155775926726081 0.062116975499023154 0.58283172072485923 117 84 77 0.013283049663476685 6 1309 7 1029
1094 0.5384538956849465 0.98713289239851554 0.45788415793858012 77 110 83 1.5641737015819626 4 1380 5 1496 6 1330
1095 0.57360564056585184 1.4948213641249533 0.6365965008746679 79 82 75 0.7512659134090498 5 1526 6 1365 7 1052
1096 0.54297178636256771 0.7859839821865674 0.42605512462556727 74 108 81 0.88056175593135533 4 1399 5 1547 6 1383
1097 0.62002033282322278 0.89427806027365575 0.46569904034127968 0 0 0 0.81389004907218276 45 2102 46 1826
1098 1.2946891718132787 0.94852522078138612 0.90257281065816242 0 0 0 0.24958570920232001 4 1403 5 1553
1100 1.9171971019986367 0.58827585532023197 0.77048985053322649 106 71 3 1.5034587579363101 5 1550 6 1407 7 1112 8 947 9 1202 10 1022
1103 1.2217448143175584 0.95546421138490933 0.87874811938084496 108 109 103 1.9095795080569136 4 1425 5 1590 6 1421 7 1136
1104 2.43841775852886 1.4932150012295151 1.0484841907264046 171 176 172 0.61105987507243598 4 1419 6 1425
1106 -1.1004745381312964 1.2933797517940728 -0.38641940760935894 186 188 187 0.2221180436428396 5 1618 6 1441
1107 -4.8070165523728532 -0.66285434222955897 -0.093979192566619491 8 1 1 0.34797078566358919 5 38 6 54
1108 1.593959142203434 1.8269687486089519 -0.73456077273257181 170 171 166 2.0790061156631507 5 1355 7 974
1111 0.96809523434717681 1.8699968902651698 -1.1917235265946762 167 169 166 3.1395650305105423 5 1460 7 1013
1112 -4.5714486038032849 -4.1292044673000401 8.453818423302792 111 101 88 2.4641364618226049 2 29 7 4
1113 -0.79586249562254907 0.74458593483120572 -0.2911733622980805 95 84 88 0.033364569153573956 6 206 7 157
1114 -0.79586249562254907 0.74458593483120572 -0.2911733622980805 95 84 88 0.033364569153573956 6 207 7 158
1115 -4.7540865542590254 0.20978950060157456 5.7092248357924911 82 82 74 0.40780207254779122 5 312 9 266
1116 0.49843840123454425 0.6640822049726568 0.31031934018333562 139 144 147 1.2568115870783514 6 299 7 205 8 341 9 272 10 211 11 373
1118 0.43788094669136224 1.452237500674803 0.5964938696559805 56 61 65 1.5751679511867385 6 383 9 335 10 463
1119 -0.78536501287782634 0.58267394862202282 -0.28267350296831123 144 127 136 1.43210215971316 6 688 7 383 8 306 9 135 10 67
1120 -5.1324466662895514 0.15141326448549244 5.8951569407928934 227 231 224 0.071704436920011078 5 847 7 423
1121 -4.9526414492308124 0.2609747865568558 5.6625420100459278 116 115 110 0.24194936162184238 6 539 9 667
1122 -4.9526414492308124 0.2609747865568558 5.6625420100459278 116 115 110 0.24194936162184238 6 540 9 666
1124 0.57795099593120292 0.91029467662218599 0.41822001250830942 0 1 0 1.1579273499742733 5 679 7 462 8 170
1125 1.3641668717847002 0.88383949017674723 0.85873935797231471 78 81 86 0.75227152773067441 4 353 8 380
1126 1.2494086818154206 0.95661451148110488 0.82434986566274704 93 96 89 0.24920889149512274 5 886 6 784 7 475
1127 1.6419401336756123 1.5849720088145449 0.39550934280708505 153 155 152 0.29961404854155221 5 443 6 622 7 490
1128 -7.1653858321050095 -4.6293912512013042 8.9028827017246854 37 31 9 0.62823616492380452 4 404 7 496 5 446
1129 -7.1587477607285699 -4.5228324044562855 8.9248212783953882 35 27 6 0.96040299119537764 5 447 7 497 4 405
1132 -7.4574609713613293 -4.5305704800707698 9.0456336072043619 104 102 81 2.1783741598456929 5 721 6 631 7 626
1133 2.2102887403707352 0.82349651849440031 1.2292702951319625 164 169 162 1.7907672835904151 7 684 10 751 11 675
1134 -5.6482037764197139 -4.2815794079284277 9.7818307704079803 0 0 0 1.1768763471255106 3 876 46 1244
1135 1.646785192264332 0.15204831354726006 0.61117651885135105 90 49 43 0.080236029201600945 6 986 7 717
1138 2.2674918679779013 0.81717181885993539 1.102311502908178 151 154 146 2.1346186562874685 8 638 9 983 10 807
1141 1.8902987643334954 0.034412164691862521 0.6270122408459653 16 1 0 1.8811908559613366 6 1084 7 790 8 655
1142 1.9221342374848853 0.035089136132916803 0.6196207319626803 127 62 42 1.5005369745616326 6 1083 7 791
1143 1.9221342374848853 0.035089136132916803 0.6196207319626803 127 62 42 1.5005369745616326 6 1082 7 792
1144 -4.8904250931566917 0.21745276523036547 5.551531365447107 165 168 159 1.1554544062241185 5 1156 9 1028 6 1106 10 856
1147 -5.7037207211034699 -1.0398762124369039 1.5163990747041403 27 9 3 3.0434149358918798 5 1288 7 843
1148 1.8182054634304892 -0.16445754982828212 0.50485078905490799 0 0 0 1.4186197338799902 5 1359 6 1213 8 700
1149 1.8182054634304892 -0.16445754982828212 0.50485078905490799 0 0 0 1.4186197338799902 5 1360 6 1214 8 699
1150 1.8647027751577052 0.3174702558042663 0.64926476807732658 124 88 65 1.6524526313533507 4 1162 7 881 8 722 9 1014 10 845
1152 -4.9545079588392715 -0.72327674928978725 -0.10812731698639566 140 141 135 1.641752999386098 4 1135 9 1054 7 931 10 821
1153 -5.3747655732598663 -2.9787633575888082 10.078144142276296 19 8 2 0.63060882338435498 3 1173 7 937
1154 1.817389729015161 0.33215155854578332 0.64140480118123766 0 0 0 0.50160054573392954 6 1163 7 950 8 779
1155 -1.1309844989751079 1.6562805488562389 -0.6351628420961003 164 166 163 0.21559713272267522 6 1246 8 739
1157 -4.9944645299286918 0.27447450817620417 5.1349418736149799 7 6 3 1.4318911689665361 6 1274 7 1032
1159 1.8194796410799021 0.02038959689133605 0.54606580779803315 1 1 0 1.8095987476065964 6 1344 7 1064
1160 2.1707946874709587 0.706467653617734 1.1853334601506711 101 102 96 0.52379312611941919 4 1342 6 1332 5 1498
1163 2.1721771552727249 0.92451841252843059 1.2092257438260852 96 97 91 0.83649663076449632 6 1437 7 1154
1164 2.0719303504657454 0.092477356170002203 0.85758917484966302 45 28 18 1.9755765618597407 2 1400 3 1053 5 1303 6 1148 8 712 10 909 9 1065
1165 1.7716378739947636 -0.24250745781878236 0.47140781870134318 92 55 51 2.2272819131402946 4 1070 6 1071 7 777 3 1085 2 1459 1 1337 47 1407 46 1506 5 1276 4 1133 44 1482 6 1136 43 1153 42 705 40 503 38 207
1167 1.7873625629189636 0.13786090726034167 0.60710072287941963 0 1 0 1.8869877697197348 3 1366 2 1737 46 1793 4 1392 7 1086 5 1535 6 1378 8 924
1169 1.8003383250038227 0.39491007644382092 0.90213857874162606 77 54 41 0.8220029383404408 6 563 7 449
1173 -5.0509684657790572 -0.68977192725987391 -0.043225657110553657 14 5 2 0.62597304881248905 4 1205 7 840
1174 -6.0451741992630037 -4.4411101896138261 10.22232253650987 0 0 0 0.010098669938055162 2 1671 3 1279
1176 -4.8093864393462393 -0.53778099668821944 0.039341486334536539 32 14 10 2.0957939819773412 5 1579 6 1412 9 1213 10 1044
1177 -4.8093864393462393 -0.53778099668821944 0.039341486334536539 32 14 10 2.0957939819773412 5 1580 6 1413 9 1214 10 1045
1178 -5.2040503828062965 0.21045429402771157 0.8741778211340353 0 0 0 1.7244401117637884 5 1617 6 1438
1179 1.6763663898518528 -0.16925402841129278 0.50176053181153002 121 59 52 1.4073273924704341 1 872 44 118 43 35 42 228 41 73
1180 1.7219970815988814 -0.076301232581034745 0.55404196752892465 162 25 15 2.1518421949004374 45 151 43 45 42 41
1181 1.5365666492851371 -0.024360352229094221 0.64323003597887751 135 84 65 0.75809983977302808 46 218 43 62 41 92 38 36 34 135 31 66 30 45 29 54
1182 1.6536526016568287 0.074785971288843012 0.59397861228697491 97 71 65 0.05637602453914084 2 671 43 70
1183 1.8298265335247941 0.41546371306106805 0.97660389477787057 102 74 53 0.1992730843017031 44 378 42 99
1184 1.6292611666922256 0.59174323201101464 0.70767893798053527 125 98 51 1.010026791006732 44 438 43 157
1185 1.510307698153277 0.26520631689861579 0.65003335812049756 34 34 32 2.0150123533129531 44 311 43 388 42 264
1186 1.5394805781911591 0.30510259305669157 0.68784766166164713 129 102 81 0.67714675601237806 44 329 43 410 42 422 41 565
1187 -2.3564693408061221 -1.1316036791360051 11.600601499905606 76 49 20 1.2050669478491829 45 425 43 456
1188 -4.742862328235752 0.11525396722617062 6.0018729172891438 122 124 118 0.51525898916855817 45 553 43 520
1189 1.3307924939339295 1.4492995398741348 0.75576997863949402 91 93 88 2.9112475569773917 44 940 42 339 41 683
1190 -0.74819727808881675 -1.2726799000866429 7.1472150225678144 64 35 4 0.42915540676502117 45 258 43 624
1191 -1.1480749365052534 -0.41718168487296037 6.8843114988244434 8 0 0 1.4661523661439508 43 734 42 299
1192 1.5309360623532504 0.63793044916446995 0.73460190844854922 10 41 81 0.58982199104528421 2 876 43 752
1193 0.62128074822020884 0.5988647930825769 0.399014650493838 2 4 1 1.0692667446924591 43 756 42 303
1194 -4.7395655345067365 -0.11275905929650766 5.9429492816686906 255 255 246 0.86991453313032674 45 1357 43 775
1195 -4.7668581995971637 -0.085684890412742104 6.1300058175430303 0 0 0 0.62692650595488186 44 1151 45 1361
1196 1.1094297916739113 0.83471624269130729 0.93563014852886572 199 204 198 1.2664344279584316 44 908 43 790 42 676
1197 1.3774636961668121 1.3859334988918877 1.1882990163800731 15 3 0 1.0451583678437892 44 550 43 818 41 680
1200 1.2049399147098823 -3.0432013606265809 14.741345281546064 12 7 1 0.25787609504185371 44 1010 43 865
1201 -0.74280411808455515 -1.314823565903825 7.0961505495928376 53 25 3 1.5483975042100877 45 1500 43 880 42 575
1202 1.5881588981919093 0.32786408462028843 0.64981440038013583 143 107 83 0.91574283190874739 44 1300 43 908 42 605 41 763 40 528 39 412 38 399
1203 -1.6995091954629427 -0.99790485986400967 7.2349319350902164 254 229 198 1.8397737319154805 43 911 42 732 41 913
1205 1.5763703486572778 0.66074085691880469 0.7167736867367227 14 45 83 1.1190497772072885 1 1246 43 961 40 430
1207 -4.6843613824130275 0.11367161286678272 5.9329399359731791 50 53 46 0.68172629579987842 44 1348 43 1006
1209 1.4100635722909205 0.015675382991615222 0.90031410730708428 134 83 53 0.71300375733356003 45 1639 43 1063 42 555
1212 1.4639068940275766 1.286425723782324 0.97582802145914171 69 60 57 2.1764436248073902 44 1469 42 691 41 979
1213 -0.7326124798184046 -5.0299218147429308 12.293428138172361 0 0 0 1.3909174550108661 3 1081 46 1504
1215 1.8283624577701112 -0.1596481562564119 0.49275823385036344 118 14 21 1.7805258439464084 7 847 45 1818 43 1158
1216 1.8283624577701112 -0.1596481562564119 0.49275823385036344 118 14 21 1.7805258439464084 7 846 45 1817 43 1159
1217 1.86818696511111 -0.14030783066012345 0.55892586457736437 0 0 0 0.19735063034825079 44 1587 45 1819
1219 -1.849861167373716 -1.4862370835994194 6.9715104988448857 60 32 11 0.92867553189843988 44 1497 42 822
1220 -1.1098395777071557 -0.41020362455885206 7.5464264282219684 40 11 4 2.0116420362798269 44 1528 43 1216 41 1037
1221 -4.6674667627372637 0.10109405595338043 6.0782976431589582 63 65 60 1.2723998909421277 44 1548 45 1669 43 1250
1224 1.8460502225915694 -0.22367915413844516 0.47957036558704946 116 73 64 2.5555688168620008 44 1581 43 1275 40 506
1225 6.1378884774053173 -4.834452048507921 16.347331403138917 35 34 29 1.4624676046209673 44 1574 42 899
1226 4.4470164678236888 -2.2051151781956428 13.243641136683419 32 12 5 1.8664962257270041 44 1509 43 1294 40 812
1227 4.4470164678236888 -2.2051151781956428 13.243641136683419 32 12 5 1.8664962257270041 44 1508 43 1295 40 811
1228 4.2119675037045496 -2.7081345215221262 9.8568429515212888 16 5 1 2.109062662496108 44 1584 43 1370 42 986
1229 1.4321081281429671 -0.0048208855937464596 0.90229579598525067 156 109 81 1.7123295651704582 44 1605 43 1374 42 907 41 1078 40 747 39 599 38 538 36 893 37 904 35 1287 35 1367 37 951 34 1445 33 1125 32 1193 31 1156 30 853 29 752
1231 1.5008789595868184 0.006673870655645015 0.75586132025911446 127 80 58 0.18980150168829396 44 1684 43 1426
1233 -0.91312052728518622 -0.83244847470328609 7.2338949089783489 120 93 66 1.0979297194527931 44 1758 43 1443
1235 -0.89437608208379404 1.1666431126637371 -0.15243632984987104 100 87 94 1.3921520652835255 45 2015 43 1480
1237 0.529655429023413 0.59556783699238136 0.38304914425690845 87 115 90 1.5307393077238203 44 1830 43 1516 42 1135
1239 0.62805231219856594 1.5018947329420056 0.53905998631401664 88 89 83 1.9514339081598679 44 1900 42 1158
1240 4.6424507223442548 -2.1099339542288238 13.321230963322421 16 9 3 1.2159700032006862 44 1860 42 1186 40 928
1241 4.6547525024144623 -2.116290131854766 13.34102684729608 16 9 3 2.0526838487050965 44 1861 43 1563 42 1187 40 929
1243 1.5372063391367705 0.067755717657108527 0.68859574821227665 120 78 54 1.8134920493444229 44 1903 43 1577 42 1202 41 1325 39 747 37 1103 36 1122 35 1552
1244 1.7648394817752078 0.52743251266406388 0.75760434974306612 38 9 11 1.5365523457813188 44 1920 43 1596
1245 1.5888260146970181 1.612428421933769 0.88250560676185508 201 205 204 0.46764548104007464 44 1937 41 1348
1246 1.543491426356604 -0.017134296937059489 0.63026642125487797 12 4 1 2.1014148249604716 44 1241 46 1278 43 851 1 586
1247 1.5850875759901357 -3.7360623317875823 14.44769423078858 33 29 21 1.1665207270163616 43 1164 46 1579 44 1490 42 811
1248 1.6953804332197904 -3.048147199834343 15.032373373358368 6 3 0 0.84334582567031779 46 1710 44 1748 42 1055 41 1211
1249 -4.2675639299852071 -1.0064912689064931 5.3097197422116054 43 41 29 0.34897262748460112 44 1026 43 658
1250 -1.5733392934991071 -0.08788755547522939 7.8584113423937341 47 19 7 2.127398820424566 1 1139 43 1124
1251 -5.5040896854673793 -2.8528236172699177 10.651215669698191 31 16 9 2.391659187836642 45 2111 43 1589
1252 1.5787859553889783 -0.33503001114524406 0.6371752748629127 213 103 104 0.18762280162787501 43 14 42 20 41 57
1253 1.7484444702414046 -0.21611991671035619 0.47880125497413945 107 11 12 0.76806884262951158 3 479 44 86 42 26
1254 1.7814918493503304 -0.20768927975752188 0.4844018008058148 112 17 17 0.89628598976729557 44 98 42 29
1255 1.7680770411657893 0.081986785272544369 0.57664600856735659 127 99 95 1.9288296306061483 44 201 42 59 41 326 40 58
1256 1.4420528803039512 0.004529795973308051 0.88568310080711643 112 73 53 1.4646474980572082 43 71 42 63 38 47
1257 1.4880076807442548 0.22600096983281553 1.0761834299877209 71 62 55 1.3870393910071084 43 113 42 85 40 264
1258 1.6258880360583139 0.61738138940899678 0.70901915519038605 1 9 32 3.3671864823093185 44 443 42 112
1259 0.19294021950665916 0.68153259833179436 0.14411469907175647 1 4 7 0.23725500562560764 43 205 42 142
1260 1.8000566380680998 -0.28121403261712202 0.48393780021075011 139 92 86 1.7259249804293393 43 316 42 220 41 55
1261 1.703537827657202 -0.26908067867583324 0.47342726185797424 134 84 80 1.1598794858136157 45 773 42 222
1262 1.7962458149291358 -0.24707377958861679 0.46694166630318612 0 0 0 0.53907578164899239 4 703 43 570
1263 -2.756844831922844 -1.5723562497411674 5.1279583017872552 65 55 45 1.5304648429786938 44 75 42 241
1264 1.6590783927961588 0.011346820626200127 0.57210175687738762 117 67 46 1.3982483219114203 3 754 42 245
1265 1.6397542604298068 0.05628552353620591 0.59694193424721764 123 98 92 0.96382392839186526 44 701 42 249 41 325 40 248
1266 -2.2845007957062329 -0.63764992374310736 6.3840173504147568 77 41 27 1.2922219815226803 43 440 42 292 41 415
1267 0.54402373201297183 0.53517073292920703 0.35897709464150573 0 4 0 1.1267182287644815 43 465 45 1374 42 297
1268 2.1305387798358546 0.98556763327466101 1.0745258950769727 113 118 114 1.7611111810983282 43 534 42 322 41 448 40 298
1269 -1.1325954671393066 0.68572707695904322 -0.29321811103963408 116 99 106 0.13060645637157015 43 228 42 328
1271 1.6486462761865261 -0.21082201769129577 0.50187054047900059 114 10 9 1.3920042222636742 1 1045 42 370 40 229
1273 1.4808769326798799 0.094311013812275177 0.7412574292835441 128 90 67 1.2181082941045704 43 354 45 919 42 388 37 431 36 411 34 156 30 56
1274 -0.88258272617889544 -0.96521088412415412 6.5489430198710661 44 17 0 0.77964290021417104 43 398 42 427 41 577
1276 -1.0622447784821474 -0.55915291514748555 6.9403290015024313 34 10 0 1.1212452543855882 43 728 42 463 41 625
1277 -0.85150665167683393 0.59824332996447083 -0.29590941831484019 2 4 3 2.513555753690671 43 764 42 490 41 662
1278 -0.96365663333286866 0.73066424139544206 -0.35290231857190985 99 104 100 1.7830012201485628 43 808 42 508 41 676
1279 1.6625175125861724 -0.14854718024122493 0.50270832605746363 114 57 50 2.1550874670185718 1 1049 42 545 39 478
1280 1.4230058764212412 0.0096911897608363967 0.92011912004765906 136 85 54 2.1320118356585809 43 1064 42 556 41 892 39 487 38 395 37 726 35 1036 34 1328 33 899 32 975 31 966 36 815
1281 -0.85320744082014555 -1.2262747518754702 6.4885966475061485 6 0 0 1.4431056908528377 43 1078 42 573 41 755 40 629
1283 -1.5426919738491378 -0.23519531745025304 7.1867757911960322 52 15 6 1.1351494954136514 43 957 42 662 41 955
1284 2.1895824347296728 1.0020009989582221 0.99169431992885171 94 97 89 1.263045287633392 43 1139 42 678 41 660
1285 1.9656773567421189 1.2225365324812349 1.1106012398909468 8 20 39 1.1853199958916547 42 689 41 846 40 571 39 448
1287 1.5706872334552242 1.3639291220761676 0.90753961807808359 52 38 35 0.060377655619177323 42 692 41 678
1288 -1.6995091954629427 -0.99790485986400967 7.2349319350902164 253 227 195 1.8397737319154805 43 912 42 733 41 914
1290 -1.9102996189358057 -0.39561358983125178 6.7547679995346979 54 28 15 2.4860434366816757 43 1116 42 758 41 1040
1291 -1.4965745574294673 -0.28388307135385071 6.9555415704277941 50 10 2 1.9440111825311304 43 953 42 759 41 950
1292 -0.89814454627426876 0.62886480776174725 -0.30892632993794783 119 104 109 1.2006954831383565 43 1128 42 771 40 566
1295 1.3920653779709891 1.373345655305382 1.2478908508731927 90 76 66 1.2088675575750023 43 1024 41 1058
1296 -0.93605211937328647 1.1416103969920248 -0.21182910013756481 4 4 4 1.1412675806073558 42 790 41 855 40 475
1297 -0.93605211937328647 1.1416103969920248 -0.21182910013756481 4 4 4 1.1412675806073558 42 791 41 856 40 476
1299 -0.12280043413931521 -3.6633878536682078 12.469922950105829 9 9 7 0.016717213627917751 43 1054 42 808
1300 1.9336488547756192 0.0087295895341882573 0.57526791682860245 119 38 34 1.4360390935009129 43 1283 42 813 41 1005
1301 1.7975738897275255 0.098300836934665958 0.59744937323352609 5 13 36 1.3358056748289637 43 1286 44 1610 42 817 41 1009 8 823 40 627
1303 -1.0736497168575083 -1.182698088695437 6.495061458143863 125 93 68 1.0660714056515586 43 1083 42 824 41 1085
1304 -1.0198692483025609 -1.1313139312893281 6.3360132141899514 79 46 15 2.470944478840134 43 1084 42 826 41 1090
1305 1.8821081817769534 0.60053172041014669 0.75787172074119757 4 19 48 0.12496516549321275 43 1215 42 855
1306 2.2060416048020923 0.91198460859623676 0.95587233149519113 109 109 101 0.55571809708042719 43 1343 42 870
1307 2.2337233854546916 0.98283629181952092 1.0043551696314938 91 94 85 1.8819122905618966 43 1417 42 873 41 831 40 294
1308 -0.98622397660897354 0.63582457241469126 -0.24403067722585806 0 0 0 1.2549411820931804 4 932 5 988
1309 -0.90545190660739316 0.64359647629631656 -0.29921166981680264 2 4 3 1.0078754564390544 43 1241 42 878
1310 -0.90545190660739316 0.64359647629631656 -0.29921166981680264 2 4 3 1.0078754564390544 43 1242 42 879
1311 1.2297388368245641 0.98616032648542917 0.83441818633256226 101 98 89 0.95580403168654138 43 1352 41 1052 40 649
1312 1.9777152513433969 1.394748765307368 0.92833992240416996 113 114 109 1.5100754506982019 43 1260 42 892
1313 -0.74176436177561178 -4.8240357764491613 11.83741620291112 0 0 0 0.57363048203167932 44 1572 45 1794
1314 -1.0844630873581689 -4.8507489894000484 12.641201689019816 0 0 0 1.486765887721101 44 1573 46 1505 44 1475
1315 1.4722766134421736 0.39991789932941546 0.96466769640860572 253 218 216 2.1637287222396115 43 1311 42 938 41 1097 40 753
1316 1.4722766134421736 0.39991789932941546 0.96466769640860572 253 218 216 2.1637287222396115 43 1312 42 939 41 1098 40 754
1317 -1.338326820037643 -0.54666971035572509 6.9172569635382386 126 102 78 1.7470770606665142 42 948 41 1031
1318 -0.97510367401944831 -0.53639732006403396 7.3047072956062653 29 6 0 1.5521443309158276 43 1322 42 949 41 1120 40 763
1319 -0.87745955444492674 0.65739849050305521 -0.30731560465879731 119 107 111 1.5777840435076285 42 972 41 1051
1320 1.5947601596796619 1.4086654679272359 0.90684084383381847 52 52 52 1.6618767878966929 43 1359 42 978 39 583
1323 1.4738321323985237 -0.025399288032950194 0.79043443360447629 28 4 0 2.0180879971083105 43 1425 42 988 41 1156 40 745 38 535 37 997 36 953 35 1366 34 1524 33 1195 31 1241 32 1345 30 920
1324 4.3470523866356006 -1.589044414990028 11.14840974730625 55 45 35 1.8217620874838303 42 997 41 1215
1325 1.5047526761552197 0.27705060730189318 0.68651749247487559 137 100 74 1.9193805386243212 43 1384 44 1698 42 1002 41 1087 39 549 38 495 37 956
1326 -1.0817547091081079 -0.45046336320745328 7.5090818159638095 54 26 15 0.55860979654818543 42 1022 41 1185
1327 0.6059991583068367 0.58899695681757092 0.40821598816968552 0 1 0 1.7599520976800804 43 1457 42 1023 41 1125
1328 0.6059991583068367 0.58899695681757092 0.40821598816968552 0 1 0 1.7599520976800804 43 1458 42 1024 41 1124
1329 -1.2440195112874419 -0.33758028247794097 7.2734672457978657 45 11 2 0.73212404504043649 42 1025 41 1130
1330 0.67575529597543416 0.59901517241983626 0.43280195525795578 95 127 104 1.8107880495872029 43 1459 42 1026
1331 1.6980606489646406 -0.71998608511728301 14.900538997453593 94 94 86 0.23971356044095277 2 506 42 1027
1332 -2.1312143751703139 -0.3475353798092069 7.4286007433303913 61 16 7 0.38362806796178534 43 1400 42 1032 41 1191
1334 1.4815791139317316 1.3888381712295956 0.94585039230776857 50 36 33 1.6112446480379379 42 1040 41 1196 40 781
1335 1.7623134551237218 -0.17576311665915356 0.49131978598052817 121 63 59 1.4124392637610128 43 1485 42 1045 41 1151 40 801
1336 4.2432696623346553 -1.9324908122450692 10.751101369988492 91 91 83 0.42443213850998179 43 1432 42 1053 41 1209
1337 4.2432696623346553 -1.9324908122450692 10.751101369988492 91 91 83 0.42443213850998179 43 1433 42 1054 41 1208
1339 1.4174274420614303 0.097669182453426664 0.95930520476508729 115 66 34 0.70400374356401785 43 1435 42 1059 41 1160 40 814
1340 -0.87364905703582008 -0.91913375151372922 6.7432320261542777 118 88 60 1.2626003964005827 43 1440 42 1062 41 1222
1341 -2.262309075673286 -0.65879103497807101 6.5885511304153326 57 19 10 1.4049029653307077 43 1445 42 1067 41 1233
1342 1.4747908861798595 0.5849483111116508 0.81551505723039897 83 34 40 2.2482433502742949 43 1454 42 1071 41 1230 40 862 39 682
1343 -1.5419752156256017 -0.29738920985116768 7.3812957022811112 74 32 20 1.8051674897980579 43 1456 42 1077 41 1271
1344 1.2946374522737345 0.84205236957613183 0.83313569134171728 155 156 150 1.8985984479852756 43 1520 41 1237 40 825
1345 2.1272553891292767 0.97937338495900761 1.0145902590946974 72 74 70 1.2295110795097119 43 1470 42 1085 41 1238 40 826
1346 2.005611049639298 1.3138939304864197 1.0378414315561633 14 10 7 1.6074138714284543 43 1522 45 2062 40 875 39 694
1349 1.2151049248842614 0.93308698433565551 0.85192409665905533 105 106 98 0.38785953727688494 42 1141 41 1274
1350 1.3118150751877076 0.9754247413206949 0.83464019353565166 131 132 124 1.813510845458794 43 1554 42 1142 41 1275 40 873
1351 -0.92198494181288115 1.0033042049751184 -0.21656276608968147 16 21 24 1.4389605922050026 43 1525 42 1150
1352 -0.98363306602715539 1.0070084903760792 -0.25910869824125948 128 113 120 2.6964908255479454 43 1527 42 1152 41 1279
1353 -0.98363306602715539 1.0070084903760792 -0.25910869824125948 128 113 120 2.6964908255479454 43 1528 42 1153 41 1280
1354 0.52801378940124843 1.3919137612534778 0.45320970103896835 215 220 216 1.7224250920683974 43 1556 42 1155 41 1278
1355 -1.5774237009481871 -1.4046330872952884 6.833430286668766 58 39 25 1.2694586642002821 43 1561 42 1165
1356 1.3135489339423603 0.56109427971461534 0.9643522645764917 194 90 87 0.68818298268706557 43 1513 41 1268
1357 -0.90690222668204334 0.93789391264058097 -0.22303209522968159 113 101 105 1.3517653255203748 1 1571 42 1182
1358 1.4646372589486256 0.056426568934180951 0.8193547502360663 39 20 14 1.5185011623348814 39 749 38 678 37 1105 36 1126 35 1554 34 1733 33 1363 32 1461 31 1403 30 1087 29 979 28 993
1359 -0.91631390502247867 0.89396694889226214 -0.23141175185465426 113 101 105 1.2791876024591486 43 1581 42 1207
1360 1.4582061512028297 0.23564119695391908 0.81650807510962098 150 106 79 1.1369466978381313 43 1592 40 948 39 769
1361 1.3631274439608527 0.69332340218793331 0.85584380142353378 1 6 27 2.8906400484214516 43 1598 42 1215 41 1332
1363 1.6210427414237623 0.094915813942814245 0.60790422378226538 75 70 66 0.85101184520870143 45 1266 44 1052 42 384 43 600 46 1095 3 916 2 1145 1 1079 47 1041 4 758 41 329 40 249 39 202 38 227 37 107 36 101
1364 1.6941367888704109 -3.0519038200484321 15.042348959330347 7 4 0 1.2615285013488573 46 1711 44 1749 42 1056 43 1431 41 1212
1365 1.7072793315486292 -0.24535860093698986 0.47167236628134085 122 79 73 2.133471031090393 5 1277 41 517 40 227
1367 0.47918614187272446 0.49726734782115567 0.33599118684139256 1 2 0 0.54358197814875553 42 750 40 420
1368 -1.7968831128979377 -0.40733548656943164 6.9907402291260476 31 11 2 1.413478231980027 43 947 42 757 44 1112
1369 1.9643977161462709 1.2252630502159454 1.0655802110329313 218 223 219 1.6499827512036418 44 1467 42 784 41 972
1372 -1.0887231286057713 -1.3702852404363823 6.6178888760091672 61 36 16 0.27848530861793808 42 1114 41 1292
1373 -4.6285587201867573 -0.17373636677254889 6.1568637158126824 208 209 207 0.73933101818642555 4 1166 5 1321 6 1156 9 1017 10 841
1374 1.4975396257289526 0.16292799472850228 0.68361544067286562 140 136 133 0.71230279048858158 42 75 41 115 40 66 39 49
1375 1.8446432241062189 0.33803866835341179 0.66899788403782057 39 28 18 0.87442949588327179 42 421 40 73
1376 0.54356369970855123 0.52443216239695478 0.3562928230083422 96 121 99 1.2977134246851008 42 110 41 166 40 87 43 154
1377 0.5508738907714148 0.54594907286125016 0.37176535448162407 103 130 109 0.86523618265790425 42 113 41 169
1378 -0.28324859058638624 0.50181707571037426 0.014414228911279589 140 145 141 0.16251263384519887 42 116 41 177
1379 2.1730579337498379 1.0041944152566589 1.1160113982238864 90 92 87 1.2106243682767965 42 159 41 212 40 444
1380 1.5394032592118332 -0.034559078744564861 0.64179984457405825 137 63 47 1.5817905760178259 43 849 41 321 38 331 37 602 39 316
1381 1.5789084910873168 0.075487945376734172 0.62887882191244426 124 111 108 0.1523292753467837 42 62 41 327
1382 1.4637702870999487 0.10845772951995365 0.77918008105468928 32 8 3 1.0493702239544962 44 248 41 333 37 436 36 416 35 570 34 160 33 488 32 77 31 553 30 59 29 66
1383 -0.80898293563239343 0.75189540956173651 -0.31240457381899572 158 163 159 1.1268475698407452 42 178 41 471 40 317
1384 1.3836379944426094 1.4676353818086292 0.86769569948499881 88 89 84 1.7202992811139555 43 552 41 477
1385 1.5053002547186021 -0.10448196312339013 0.49586015111499399 204 86 84 1.9117228090653138 42 373 41 528 39 401
